ply
format ascii 1.0
comment Created by Open3D
element vertex 1957
property double x
property double y
property double z
end_header
3.49425 0.72424 5.817
3.60168 0.710967 5.79575
3.6814 0.702908 5.77938
3.72776 0.702793 5.76836
4.03358 0.660245 5.70942
4.23512 0.639483 5.66818
4.37491 0.622723 5.64035
5.72683 0.467355 5.36901
5.88893 0.453258 5.33498
5.95021 0.452536 5.3206
6.09008 0.443926 5.29007
4.1142 1.96698 5.25985
4.02134 1.96981 5.28107
3.97269 1.97122 5.29221
3.9515 1.9715 5.29717
3.80277 1.96575 5.33455
3.72828 1.97009 5.35089
3.57497 1.96252 5.38996
3.40431 1.96231 5.43073
3.33258 1.96738 5.44618
3.32549 1.95979 5.45037
3.27133 1.96658 5.46105
3.18093 1.9628 5.48386
3.17487 1.95466 5.48799
2.9576 1.95474 5.53979
2.73714 1.95682 5.5917
2.13573 1.99769 5.72171
2.72246 1.95774 5.5949
2.69981 1.95048 5.60269
2.28814 1.94689 5.70208
-0.39292 2.15985 6.27152
0.280503 1.10145 6.45943
0.364678 1.0944 6.44167
0.577607 1.0667 6.4
0.60389 1.0675 6.39346
0.737485 1.05857 6.36453
0.763992 1.05318 6.35999
0.849527 1.04606 6.34193
0.904003 1.03791 6.33161
0.994678 1.02197 6.31523
1.14372 1.00802 6.28427
1.48822 0.960781 6.21765
1.64527 0.950254 6.18365
1.66614 0.949326 6.17898
1.6729 0.952507 6.17632
1.77978 0.936325 6.15615
1.94111 0.926068 6.12104
1.95974 0.922911 6.11764
2.03709 0.910746 6.10319
2.08526 0.906028 6.09325
2.13503 0.902691 6.08248
2.20288 0.897105 6.06813
2.23105 0.890385 6.06363
2.31874 0.88286 6.04519
2.36848 0.878378 6.0348
2.49656 0.863339 6.00919
2.64287 0.843093 5.98096
2.77035 0.830421 5.95472
2.95629 0.808844 5.91747
2.98593 0.815225 5.9083
3.3043 0.746315 5.85505
3.32608 0.74509 5.85025
3.42635 0.737752 5.82875
3.70502 0.709541 5.77156
3.76825 0.702372 5.75884
3.87632 0.688274 5.7377
3.99586 0.677587 5.71271
4.20621 0.648866 5.67198
5.66039 0.48068 5.38047
5.69719 0.483409 5.3708
5.74351 0.474198 5.36278
5.81411 0.472928 5.34636
5.98043 0.462359 5.31016
6.00766 0.45984 5.30449
6.02699 0.458707 5.30026
6.0584 0.455047 5.29397
2.09782 -1.19142 6.78099
2.22101 1.95344 5.71594
2.21473 1.95058 5.71838
2.12312 1.95041 5.74028
2.05806 1.94495 5.75761
1.98445 1.94632 5.77471
1.79455 -1.13261 6.83397
1.5287 -1.09651 6.8855
6.15872 -2.95748 6.39385
1.52019 1.94194 5.88691
1.48285 1.94182 5.89585
1.43507 1.93467 5.9096
1.15839 1.94226 5.97311
1.13034 1.94048 5.98039
1.10683 1.93909 5.98645
0.629606 1.9316 6.10276
0.211679 1.92884 6.20337
-0.00195263 1.93143 6.25348
-0.0191241 1.93025 6.25796
-0.0469475 1.92604 6.26599
-0.0674482 1.92858 6.27004
-0.0877189 1.93072 6.27417
2.1365 1.98425 5.72595
0.243267 1.10857 6.46596
0.36178 1.09643 6.44169
0.382317 1.09504 6.43725
0.494134 1.08558 6.41369
0.531727 1.07814 6.40717
0.54557 1.07738 6.40412
0.615066 1.07231 6.38921
0.637058 1.07004 6.38471
0.647194 1.07565 6.38045
0.828787 1.05344 6.34444
1.04042 1.03058 6.30149
1.13364 1.01615 6.284
1.36756 0.986467 6.23797
1.42259 0.989291 6.22391
1.55166 0.970577 6.19929
1.69027 0.954764 6.17143
1.70024 0.956613 6.16844
1.73477 0.946308 6.1636
1.84467 0.938579 6.13993
1.87073 0.938162 6.13385
1.89416 0.931467 6.13046
2.02055 0.916897 6.10511
2.08603 0.912409 6.09097
2.41916 0.881486 6.02168
2.55647 0.864461 5.99453
2.58654 0.860008 5.98883
2.61505 0.8546 5.98381
2.63706 0.852548 5.97923
2.66106 0.849465 5.97452
2.70638 0.845063 5.96516
2.86025 0.827474 5.93425
2.96517 0.822384 5.91089
3.03494 0.813851 5.89706
3.47235 0.744494 5.81556
3.50556 0.74009 5.80908
3.55012 0.73565 5.79992
3.65934 0.719981 5.77902
4.05808 0.674903 5.69875
4.20155 0.663208 5.66837
4.42725 0.639395 5.62237
4.64518 0.612952 5.57909
5.57027 0.500479 5.39545
5.72122 0.485913 5.36424
5.78422 0.475203 5.35274
5.7815 0.479509 5.35197
5.88517 0.469858 5.33041
1.47909 -1.08735 6.89432
6.10377 -2.95168 6.40505
5.86805 -3.00364 6.47839
5.29695 -2.95642 6.59908
5.03702 -2.91577 6.6477
5.02785 -2.92052 6.65145
4.95541 -2.90823 6.66468
4.31909 -2.84513 6.7957
-0.643099 1.92029 6.41009
3.65612 -0.277833 6.10839
3.91293 -0.283557 6.04901
5.43589 -0.309518 5.69426
1.45137 -1.08872 6.90138
0.266521 1.11321 6.45889
0.288846 1.11531 6.45287
0.3175 1.11048 6.44763
0.346271 1.1062 6.44217
0.379829 1.10338 6.4351
0.407213 1.10149 6.42919
0.625624 1.07785 6.38487
0.774795 1.06143 6.35469
0.850388 1.05976 6.33721
0.901764 1.04948 6.32834
0.943779 1.04466 6.3199
0.966263 1.04741 6.31363
0.982816 1.03478 6.31384
1.10827 1.03245 6.28469
1.23898 1.01021 6.26083
1.33759 0.99746 6.2415
1.34919 1.00519 6.23619
1.45735 0.989739 6.21548
1.4762 0.993371 6.20978
1.55312 0.979683 6.19594
1.64701 0.964218 6.17864
1.71401 0.959813 6.1641
1.75749 0.94904 6.15728
1.76725 0.949842 6.15469
1.8019 0.94725 6.14727
1.90024 0.943425 6.12508
2.06916 0.919919 6.09252
2.16115 0.907084 6.0748
2.20037 0.906879 6.06551
2.21862 0.904554 6.06193
2.2748 0.899879 6.05006
2.38023 0.890623 6.02796
2.76501 0.852667 5.94867
2.86141 0.839033 5.93016
3.08465 0.811258 5.88606
3.13565 0.802235 5.87686
3.16559 0.803901 5.86917
3.40123 0.754441 5.82925
3.4411 0.755111 5.81951
3.58174 0.739294 5.79117
3.68514 0.725974 5.77089
3.71627 0.725738 5.76355
3.8312 0.702722 5.74371
3.92486 0.70553 5.72044
3.95149 0.700811 5.71564
3.99435 0.693307 5.70789
4.01155 0.694136 5.70351
4.02455 0.693711 5.70055
4.12288 0.682641 5.68074
4.17527 0.670129 5.67236
4.22572 0.663654 5.66246
4.2435 0.669551 5.65628
5.46939 0.531595 5.40927
5.64745 0.50237 5.37642
5.68666 0.50118 5.36746
5.75455 0.490993 5.35462
5.78711 0.485921 5.34852
5.86997 0.475234 5.33227
5.95987 0.481357 5.30881
6.07792 0.467997 5.28505
1.41502 -1.07745 6.90634
1.21838 -1.0729 6.95175
0.897454 -1.02252 7.01172
0.804038 -1.00826 7.02931
4.21723 -2.82952 6.81486
4.05267 -2.81749 6.85015
3.7786 -2.7812 6.90358
3.6588 -2.76982 6.92841
3.09256 -2.71459 7.0453
3.0231 -2.71075 7.06061
5.73677 1.98002 4.86849
5.66963 1.9763 4.88573
5.42389 1.97615 4.9444
5.39903 1.976 4.95038
5.37345 1.97596 4.9565
5.35796 1.97454 4.96066
2.9344 -2.70158 7.07875
2.91095 -2.70541 7.0856
0.306341 1.1234 6.44604
0.336321 1.11737 6.44087
0.358941 1.11472 6.43634
0.426179 1.10107 6.4248
0.46269 1.10457 6.41494
0.487385 1.09674 6.41163
0.562168 1.09162 6.39547
0.585581 1.08831 6.39098
0.925813 1.05348 6.32128
0.982406 1.05194 6.30829
1.01473 1.04569 6.30264
1.04547 1.04525 6.29545
1.07205 1.04137 6.29039
1.08903 1.03438 6.28864
1.11388 1.03734 6.28173
1.17163 1.02484 6.27208
1.2856 1.01238 6.24899
1.39637 1.00485 6.22505
1.56249 0.992377 6.18953
1.70462 0.971152 6.16261
1.72143 0.965177 6.16057
1.75369 0.967099 6.15224
1.95775 0.940465 6.11233
2.18863 0.920399 6.06386
2.20939 0.909254 6.06258
2.27812 0.902298 6.04847
2.30486 0.908483 6.04006
2.40294 0.891417 6.02228
2.43373 0.890844 6.01513
2.52586 0.876139 5.99799
2.56794 0.880566 5.9865
2.59169 0.876851 5.98205
2.63755 0.87514 5.97168
2.97753 0.832453 5.90463
3.14212 0.814203 5.87138
3.20546 0.805767 5.85904
3.47774 0.760314 5.80906
3.50815 0.758504 5.8024
3.53505 0.755679 5.79692
3.60187 0.747119 5.78379
3.66616 0.743496 5.76965
3.77681 0.719048 5.75131
3.79254 0.722726 5.74634
3.92464 0.705147 5.72062
4.1792 0.684955 5.66654
4.20849 0.678416 5.66171
4.26742 0.676579 5.64826
4.36213 0.655501 5.63261
5.05553 0.578057 5.4927
5.44973 0.53905 5.4115
5.71835 0.506033 5.3583
5.73438 0.501582 5.35594
5.78534 0.497363 5.34517
5.86845 0.487085 5.32873
5.87614 0.495748 5.32404
5.97423 0.489666 5.30265
6.02568 0.494542 5.28877
0.58567 -0.977389 7.07123
0.0321845 -0.898406 7.17726
-0.0355613 -0.880835 7.18763
-0.385366 -0.827042 7.25336
-0.394182 -0.833405 7.25756
2.8445 -2.69187 7.097
2.70421 -2.67098 7.12358
2.69004 -2.67678 7.12887
2.57651 -2.67098 7.15404
2.07113 -2.6304 7.26124
0.999419 -2.51852 7.48006
4.00618 1.96187 5.2873
3.93385 1.96145 5.3047
3.91326 1.96049 5.30992
3.86031 1.96398 5.32141
3.39229 1.95398 5.43635
3.30659 1.95669 5.4559
3.17739 1.94706 5.48989
3.11968 1.94853 5.50317
3.08529 1.94901 5.51122
2.94181 1.94622 5.54637
2.65813 1.94876 5.6132
2.63246 1.9439 5.62093
2.27966 1.94088 5.70608
2.26468 1.94242 5.70915
2.25423 1.94654 5.71028
2.23978 1.94441 5.71443
2.10814 1.94557 5.74546
2.02125 1.9459 5.76607
2.00331 1.93768 5.77306
0.287173 -2.45939 7.63049
-0.342974 -2.40751 7.76373
5.47099 1.72825 5.0148
1.98624 1.93954 5.77652
0.289772 1.12899 6.44815
0.390785 1.11726 6.42791
0.412292 1.11624 6.42312
0.432795 1.11203 6.41961
0.446358 1.11168 6.41649
0.515454 1.0995 6.40402
0.519855 1.10256 6.40196
0.541621 1.09812 6.39823
0.895225 1.0626 6.32558
0.936776 1.05552 6.318
1.00529 1.05037 6.30335
1.15246 1.03737 6.27252
1.18315 1.03069 6.2674
1.30245 1.01834 6.24301
1.3534 1.02005 6.23029
1.461 1.00702 6.20891
1.61686 0.983135 6.1796
1.6581 0.984413 6.16934
1.76748 0.965292 6.14954
1.80226 0.968635 6.14015
1.82831 0.967134 6.13443
1.87004 0.962847 6.12588
1.878 0.949534 6.12837
1.96491 0.941811 6.11018
2.10483 0.936213 6.07864
2.45156 0.893064 6.01014
2.68879 0.872005 5.96048
2.77609 0.863684 5.9424
2.90652 0.850299 5.91569
3.02863 0.826124 5.89452
3.07693 0.830646 5.88151
3.25062 0.81485 5.84528
3.83948 0.731182 5.73236
3.86807 0.724371 5.72778
4.06677 0.700884 5.68812
4.09853 0.703979 5.67952
4.14476 0.691377 5.67264
4.2316 0.684209 5.65429
4.30222 0.676353 5.64003
4.36311 0.672612 5.62674
4.38843 0.671378 5.6211
4.46574 0.650583 5.60951
4.87372 0.615792 5.52364
5.79466 0.505544 5.34026
5.95702 0.501275 5.30293
6.00291 0.494049 5.29436
-0.546388 -0.811236 7.28657
-0.570986 -0.797903 7.28805
-0.582417 -0.803398 7.29258
1.82346 1.93731 5.81608
1.35611 1.93373 5.92875
1.19159 1.93639 5.96712
1.14412 1.93647 5.97842
1.06161 1.92849 6.00073
1.01571 1.92768 6.01195
0.695304 1.92397 6.0896
0.673423 1.93028 6.09275
0.255492 1.92342 6.1947
0.0438034 1.92219 6.24561
0.0302488 1.92022 6.24949
-0.64132 1.91333 6.41196
5.73005 -0.316086 5.62625
5.7785 -0.314309 5.6141
5.99168 -0.290397 5.55538
-0.605388 -0.800455 7.29709
-0.674393 -0.797707 7.31265
5.80611 -3.19764 6.55706
5.42583 2.11261 4.899
0.300027 1.13234 6.4446
0.32314 1.12905 6.44017
0.336039 1.13108 6.43642
0.360792 1.12743 6.43172
0.477875 1.11556 6.4077
0.501841 1.11306 6.4028
0.639062 1.09062 6.37746
0.669499 1.09145 6.36992
1.02584 1.05204 6.2979
1.24329 1.03202 6.25262
1.50653 1.00831 6.19763
1.5776 1.00166 6.18286
1.60174 0.994018 6.17962
1.67377 0.986406 6.16495
1.84915 0.967415 6.12936
1.92034 0.957755 6.11556
2.33355 0.918526 6.02991
2.5797 0.887864 5.98129
2.60561 0.886873 5.97543
2.62393 0.885296 5.97158
2.65742 0.881392 5.96488
2.97819 0.85066 5.89848
3.01362 0.846794 5.8913
3.0676 0.836792 5.88171
3.08762 0.831943 5.87854
3.26568 0.818264 5.84057
3.30266 0.817645 5.83195
3.54229 0.771505 5.78998
3.57932 0.764722 5.78338
3.61128 0.760416 5.77717
3.64474 0.75473 5.77106
3.73614 0.749248 5.75106
3.99823 0.723786 5.69693
4.07317 0.715422 5.6818
4.18199 0.701603 5.6604
4.25787 0.690776 5.64586
4.42743 0.674044 5.61092
4.83043 0.6269 5.53031
5.25281 0.583517 5.44384
5.80093 0.52245 5.33319
5.82752 0.514059 5.32961
5.875 0.51419 5.31824
5.95501 0.516835 5.29828
5.9705 0.509473 5.29701
6.00677 0.515453 5.28639
6.01898 1.97621 4.80242
5.82523 1.9707 4.85046
5.59384 -6.12053 7.57026
6.1211 -2.96589 6.4056
6.09952 -2.96604 6.41079
5.87678 -3.00853 6.47792
5.8536 -3.00608 6.48264
3.68798 -2.78804 6.92745
2.89263 -2.70282 7.08912
5.79999 1.97258 4.85586
5.77665 1.96982 4.86234
5.75606 1.96937 4.8674
5.71847 1.96894 4.8765
5.5858 1.96948 4.90797
5.56322 1.96943 4.91338
5.5754 1.72017 4.99256
0.0465322 1.16171 6.4954
0.291551 1.14217 6.44338
0.311667 1.13534 6.44083
0.382875 1.13275 6.4247
0.423206 1.12801 6.41664
0.458016 1.1241 6.40962
0.534361 1.11685 6.3938
0.56016 1.11108 6.38954
0.783338 1.0839 6.34525
0.949488 1.07174 6.30962
1.12852 1.05333 6.27298
1.54706 1.00874 6.18782
1.55767 1.0093 6.1851
1.65215 0.999587 6.16576
1.81522 0.983687 6.1321
1.95914 0.960309 6.10546
1.98023 0.960289 6.10044
2.03755 0.959086 6.08716
2.06731 0.954794 6.08148
2.20441 0.940148 6.0536
2.34539 0.918626 6.02705
2.45633 0.90942 6.00362
2.4921 0.903656 5.99698
2.56563 0.897663 5.98141
2.58181 0.896077 5.97808
2.62303 0.894145 5.96888
2.71425 0.880162 5.95173
2.75439 0.873524 5.94433
2.78335 0.876178 5.93655
2.9232 0.859936 5.90854
2.94763 0.85963 5.90281
3.03233 0.848307 5.88634
3.04983 0.844514 5.88341
3.08606 0.837586 5.87705
3.09898 0.841426 5.8727
3.13842 0.845505 5.86195
3.19725 0.834924 5.8514
3.36277 0.812849 5.81919
3.39531 0.815141 5.81067
3.41893 0.811709 5.80616
3.99192 0.7255 5.69787
4.16023 0.708927 5.66317
4.21382 0.708303 5.65059
4.30655 0.69717 5.63214
4.33573 0.691915 5.62691
4.36901 0.687525 5.62042
4.59768 0.663219 5.57387
4.62885 0.653801 5.56954
4.66691 0.65319 5.56066
4.67445 0.651059 5.55956
4.69537 0.652482 5.5541
4.715 0.640313 5.55343
5.02161 0.608287 5.49083
5.04807 0.61082 5.48369
5.08178 0.603424 5.47808
5.31955 0.585453 5.42728
5.36429 0.569902 5.42173
5.37434 0.569295 5.41953
5.55794 0.554072 5.38074
5.67591 0.545074 5.35556
5.8263 0.529528 5.32481
5.86001 0.515784 5.32129
5.78947 -6.15004 7.53331
2.47992 -2.67214 7.17747
1.80868 -2.60039 7.31397
1.034 -2.53684 7.47784
0.639277 -2.50279 7.56079
3.98576 1.95899 5.29312
3.96655 1.95472 5.29911
3.78603 1.95337 5.34262
3.67258 1.94886 5.37117
3.38884 1.94716 5.43942
3.33062 1.94997 5.45238
3.28654 1.94942 5.46307
3.17698 1.93973 5.4924
2.73973 1.939 5.59695
2.71644 1.94132 5.60174
2.6932 1.93796 5.60839
2.67561 1.94397 5.61061
2.28516 1.93276 5.70744
2.22698 1.93698 5.71993
2.18542 1.93254 5.73131
1.99216 1.93181 5.77765
1.97215 1.93244 5.78222
1.54608 1.92888 5.88503
0.250041 1.15272 6.44981
0.34751 1.14154 6.43024
0.403405 1.1377 6.41817
0.442587 1.1331 6.41034
0.491681 1.12663 6.40076
0.516668 1.12234 6.39621
0.657804 1.10232 6.36913
0.673893 1.10597 6.3641
0.743766 1.09515 6.35099
0.759925 1.09285 6.34789
0.928533 1.08171 6.31134
1.19914 1.05211 6.25653
1.24634 1.04756 6.24677
1.51162 1.02288 6.19162
1.58702 1.00836 6.17841
1.83158 0.979926 6.12943
2.0859 0.958324 6.07588
2.11821 0.957461 6.06846
2.15469 0.951544 6.0617
2.24287 0.94458 6.04296
2.26916 0.938462 6.0387
2.30025 0.937246 6.03169
2.46127 0.922901 5.998
2.69322 0.889045 5.95382
2.84873 0.874844 5.9214
2.86487 0.873114 5.91812
2.93052 0.867809 5.9042
2.98592 0.865564 5.89172
3.02909 0.85503 5.8849
3.04911 0.853452 5.88064
3.07431 0.858366 5.87301
3.16016 0.851753 5.85471
3.24849 0.836504 5.83866
3.30405 0.832485 5.82673
3.73031 0.781306 5.7419
3.7417 0.782856 5.73867
4.04108 0.728769 5.68506
4.08679 0.724305 5.67563
4.32549 0.706375 5.62459
4.40018 0.691332 5.61173
4.43762 0.688558 5.60371
4.48271 0.680014 5.59577
4.73605 0.650891 5.54492
4.87925 0.644463 5.51288
5.26621 0.596086 5.4365
5.36405 0.584765 5.41689
5.80233 0.538907 5.32744
5.8521 0.53254 5.31766
5.95279 0.529136 5.29476
5.96472 0.537118 5.28929
5.98015 0.535718 5.28607
6.00931 0.536246 5.27894
2.87143 -6.20706 8.24819
2.8382 -6.19636 8.2526
2.48982 -6.16721 8.32611
1.52247 1.92874 5.89071
1.49839 1.93279 5.89512
1.4809 1.93504 5.89855
1.34149 1.92974 5.93355
1.32087 1.92581 5.93977
1.21864 1.92683 5.96382
1.13617 1.92628 5.98367
1.09827 1.92522 5.99306
1.06917 1.92159 6.0012
0.228341 1.91879 6.2027
0.213459 1.91454 6.20765
0.00878574 1.91349 6.25682
-0.0112705 1.91628 6.26069
-0.0255267 1.91638 6.26406
-0.0496593 1.9174 6.26948
-0.0700556 1.91921 6.27375
-0.0897973 1.91874 6.27861
-0.291003 1.91616 6.32746
-0.524805 1.90942 6.38545
-0.660482 1.90716 6.41857
1.33965 -0.240452 6.64868
3.41884 -0.253569 6.157
3.75836 -0.268507 6.08093
3.82721 -0.273422 6.06612
3.90579 -0.273293 6.04734
4.07174 -0.280976 6.01028
0.306255 1.15235 6.43652
0.326918 1.14844 6.43288
0.370589 1.14622 6.42319
0.472352 1.13533 6.4025
0.535664 1.12839 6.38969
0.556411 1.12702 6.38519
0.57859 1.12285 6.38127
0.604594 1.11783 6.37672
0.639178 1.11304 6.37005
0.69241 1.11229 6.3576
0.716695 1.11092 6.35225
0.790459 1.09918 6.33852
0.801196 1.09618 6.33695
1.05301 1.07128 6.28508
1.07398 1.06966 6.28061
1.0971 1.06265 6.27741
1.13809 1.06199 6.26784
1.16558 1.06169 6.26138
1.30274 1.04163 6.23527
1.31892 1.0386 6.23241
1.56819 1.01971 6.17916
1.82534 0.994012 6.12628
1.90756 0.984559 6.10978
1.91836 0.984977 6.10707
2.01695 0.970959 6.08817
2.04539 0.974924 6.08008
2.06803 0.972808 6.07537
2.14 0.963343 6.06132
2.19122 0.952392 6.05271
2.21815 0.953152 6.04603
2.37117 0.933123 6.01613
2.42918 0.926477 6.00448
2.43178 0.92827 6.00326
2.77455 0.883964 5.93609
2.93083 0.874913 5.90179
2.95398 0.874867 5.89628
3.00715 0.867058 5.88617
3.03528 0.866604 5.87961
3.04926 0.861263 5.87803
3.13489 0.859716 5.85811
3.18006 0.85305 5.84953
3.20182 0.851609 5.84482
3.26958 0.844772 5.83091
3.35381 0.833396 5.81456
3.37888 0.831134 5.80932
3.40559 0.826487 5.80448
3.43307 0.823454 5.79892
3.47397 0.820591 5.79011
3.7779 0.78467 5.72944
4.05446 0.738971 5.67851
3.8691 0.778692 5.70965
4.22176 0.723756 5.64361
4.28822 0.723105 5.62797
4.3583 0.701907 5.61824
4.46115 0.695689 5.59575
4.58684 0.680602 5.57073
4.72256 0.665067 5.54347
4.75509 0.663473 5.53624
4.77831 0.659772 5.53192
4.81222 0.662649 5.52288
5.29348 0.608914 5.42577
5.33713 0.598999 5.41862
5.58655 0.56897 5.36901
5.72593 0.55753 5.33953
5.80244 0.550907 5.32346
5.82862 0.54652 5.31866
5.88427 0.537912 5.30822
5.89448 0.544003 5.30378
0.110269 -5.18527 8.57038
0.469172 -5.25334 8.50718
0.576741 -5.26254 8.48455
0.729552 -5.27872 8.45342
0.824057 -5.29546 8.43639
6.10035 -2.97923 6.41494
5.52931 -3.7637 6.8095
5.75645 1.96403 4.86906
5.59059 1.95948 4.91012
5.55321 1.9593 4.9191
5.51127 1.95978 4.92895
5.48799 1.96092 4.93413
5.43 1.95948 4.94843
5.39489 1.96427 4.95523
0.251625 1.1596 6.44717
0.342772 1.15616 6.42656
0.392353 1.15007 6.41673
0.417966 1.1452 6.41223
0.441328 1.14424 6.40697
0.460988 1.14416 6.40231
0.49195 1.14061 6.39609
0.647101 1.11831 6.36642
0.663012 1.11942 6.36226
0.73364 1.10156 6.35129
0.745461 1.11291 6.34474
0.7685 1.10676 6.34127
0.884472 1.09113 6.31875
0.937753 1.09084 6.30613
1.12004 1.06898 6.26985
1.23479 1.05583 6.2468
1.88757 0.993214 6.1117
2.00201 0.978213 6.08934
2.10052 0.972539 6.06771
2.25781 0.953835 6.03635
2.27689 0.954018 6.03174
2.31376 0.951511 6.02377
2.33708 0.943726 6.02077
2.36079 0.943991 6.01502
2.38273 0.939672 6.01121
2.40663 0.940398 6.00527
2.42733 0.935098 6.00208
2.44815 0.93394 5.99749
2.45917 0.928612 5.99662
2.49624 0.929198 5.98758
2.59569 0.916013 5.9682
2.80133 0.899273 5.92466
2.95995 0.879512 5.89333
3.0729 0.863833 5.87154
3.75577 0.79892 5.73002
3.77639 0.799068 5.72505
3.91223 0.780035 5.69892
4.33952 0.71779 5.61749
4.39346 0.710402 5.60705
4.42474 0.707776 5.60045
5.3785 0.603841 5.40716
5.53869 0.585184 5.37509
0.00628078 2.06671 6.20696
5.67397 -3.01494 6.52841
5.61507 -3.00435 6.53897
5.45824 -2.99232 6.57243
5.44058 -2.99053 6.57605
5.26235 -2.96889 6.61144
4.62646 -2.89931 6.74022
4.24199 -2.85293 6.81666
3.56223 -2.78461 6.95632
3.55079 -2.78968 6.96072
3.36788 -2.76077 6.99483
2.83274 -2.71167 7.10632
2.68962 -2.69562 7.13518
4.00264 1.94878 5.29246
3.94686 1.948 5.30602
3.86451 1.94696 5.32601
3.49639 1.93807 5.41675
3.30232 1.94442 5.46096
1.06588 2.0787 5.95025
0.268024 1.16348 6.44198
0.294326 1.16064 6.43664
0.321655 1.1608 6.43007
0.368784 1.1589 6.41945
0.513785 1.14116 6.3907
0.551345 1.13929 6.38236
0.572805 1.13875 6.37741
0.590932 1.1324 6.37518
0.615305 1.13031 6.37006
0.689276 1.12564 6.35395
0.716194 1.12105 6.34904
0.786587 1.1162 6.33384
0.921034 1.09547 6.3086
0.97978 1.09025 6.2963
1.02944 1.09051 6.28437
1.30851 1.0555 6.22933
1.84374 0.998693 6.12035
1.92362 0.993366 6.10305
2.05466 0.985075 6.07452
2.07365 0.987278 6.06927
2.22262 0.965253 6.04098
2.38102 0.95545 6.00642
2.42674 0.943078 5.99959
2.48706 0.93796 5.98689
2.56635 0.9293 5.97082
2.59653 0.930176 5.96334
2.83228 0.900967 5.91672
2.97114 0.887832 5.88792
3.17829 0.861434 5.84719
3.18106 0.863136 5.84597
3.23292 0.859677 5.83474
3.25947 0.853549 5.83042
3.2986 0.846811 5.82331
3.37778 0.845688 5.80479
3.41648 0.843614 5.79624
3.43377 0.839153 5.79359
3.45575 0.831651 5.79081
3.49069 0.839404 5.77992
3.66294 0.819546 5.74538
3.75017 0.805083 5.72933
3.82398 0.799284 5.71363
3.84958 0.794996 5.70894
3.96954 0.78891 5.68232
3.99993 0.780265 5.67792
4.30065 0.731437 5.62226
4.43776 0.716792 5.59438
4.47179 0.712285 5.58774
4.8914 0.665231 5.50314
5.29782 0.624477 5.41961
5.33787 0.619609 5.41166
5.40224 0.607991 5.40013
5.45595 0.607157 5.38759
5.8002 0.569563 5.31785
5.82899 0.565004 5.31248
5.86319 0.556447 5.30714
5.8865 0.562456 5.2996
5.90847 0.559328 5.29539
1.222 2.07722 5.91349
0.884262 -5.30092 8.42383
1.01272 -5.32373 8.4007
2.65022 -2.68996 7.14271
2.43824 -2.67534 7.18847
2.33461 -2.6641 7.20949
3.18276 1.93238 5.49344
3.17383 1.93277 5.49545
2.98603 1.93168 5.54061
2.95536 1.9317 5.54792
2.71582 1.9253 5.60717
2.70647 1.93407 5.60651
2.655 1.93689 5.61786
2.2875 1.92508 5.70942
2.27926 1.9259 5.71111
2.2669 1.92457 5.7145
2.25778 1.92975 5.71497
2.21733 1.92871 5.72496
2.08427 1.92368 5.75836
2.06788 1.9262 5.76143
2.01792 1.93179 5.77151
2.1353 1.94166 5.74026
1.9787 1.92484 5.78316
1.77007 1.92567 5.83265
2.00897 -2.6341 7.27729
1.25717 -2.56536 7.434
5.68743 1.69131 4.97534
5.61584 1.69502 4.9912
0.261042 1.17388 6.44022
0.308261 1.16714 6.43117
0.34426 1.16625 6.42288
0.392478 1.16218 6.41272
0.413712 1.16008 6.40834
0.430951 1.15819 6.40485
0.450994 1.15682 6.40052
0.471218 1.15255 6.3971
0.488013 1.15118 6.39355
0.532469 1.14926 6.38357
0.638444 1.13233 6.36387
0.654746 1.12991 6.36078
0.676066 1.1322 6.35494
0.741211 1.12595 6.34146
0.767628 1.12492 6.33549
0.8089 1.11878 6.32767
1.05683 1.08919 6.27827
1.11584 1.08778 6.26466
1.22856 1.07725 6.24123
1.31064 1.06621 6.22529
1.34091 1.06155 6.2196
1.35937 1.06455 6.21421
1.65308 1.03045 6.15538
1.99957 0.992135 6.08534
2.01867 0.994617 6.07997
2.03651 0.990748 6.07698
2.08392 0.984507 6.06773
2.09745 0.988904 6.06305
2.14935 0.978707 6.05403
2.28317 0.96836 6.02552
2.40393 0.956652 6.00056
2.48913 0.944629 5.9842
2.54759 0.938037 5.97242
2.61466 0.927808 5.95979
2.64546 0.930795 5.95146
2.74964 0.918853 5.93054
2.83143 0.907743 5.91469
2.97845 0.891791 5.88487
3.26803 0.866825 5.82401
3.34376 0.859658 5.80831
3.45474 0.845416 5.78652
3.4785 0.838745 5.78305
3.52284 0.835106 5.77367
3.68894 0.819895 5.73906
3.75899 0.814926 5.72398
3.77615 0.814083 5.72017
3.88209 0.79977 5.69961
4.0273 0.786176 5.66945
4.35046 0.729652 5.61097
5.37469 0.625385 5.40097
5.58274 0.600865 5.35942
5.69984 0.586853 5.3361
5.85866 0.573788 5.30251
6.05527 -1.69314 6.00216
1.0974 -2.55023 7.46712
1.68523 1.92326 5.85369
1.52262 1.92115 5.89317
1.46413 1.92141 5.90704
1.1194 1.91957 5.98988
1.06512 1.9144 6.00453
0.727652 1.91343 6.08536
0.202011 1.90713 6.21282
0.039511 1.911 6.25032
-0.00551611 1.90741 6.26224
-0.0193719 1.90784 6.2654
-0.47264 1.90332 6.37502
-0.648152 1.9055 6.41617
5.72342 -0.30754 5.62501
6.00568 -0.278187 5.54801
5.63567 -1.68691 6.1002
5.58203 -1.68115 6.1111
5.84107 1.95559 4.85165
5.81689 1.9559 4.85732
5.56905 1.95217 4.91767
0.292528 1.17376 6.43275
0.325301 1.17178 6.42558
0.364489 1.1725 6.41599
0.519473 1.15233 6.38566
0.551557 1.15079 6.37852
0.577277 1.14561 6.37409
0.60509 1.1434 6.36818
0.628271 1.14323 6.36271
0.643802 1.14117 6.35968
0.699724 1.13354 6.34885
0.719237 1.12993 6.34539
0.834084 1.12381 6.32001
0.900491 1.11838 6.30595
1.02678 1.10516 6.28018
1.07306 1.09627 6.27207
1.55014 1.04729 6.17439
1.67247 1.03853 6.14809
1.92166 1.01171 6.09748
1.95583 1.00781 6.09061
2.02258 1.00003 6.07725
2.2701 0.974514 6.02661
2.48696 0.952642 5.98208
2.51507 0.951094 5.97588
2.58294 0.941018 5.96301
2.59807 0.943793 5.95849
2.66266 0.936092 5.94561
2.68284 0.934195 5.94142
2.70656 0.932856 5.93621
2.73153 0.927748 5.93193
2.77748 0.927033 5.92121
2.80401 0.924668 5.91565
3.2172 0.876474 5.83296
3.23088 0.873692 5.83061
3.2521 0.870311 5.82666
3.38539 0.857652 5.79904
3.48194 0.853176 5.77748
3.50332 0.848678 5.77386
3.55722 0.844474 5.76238
3.57956 0.844418 5.75707
3.74699 0.822338 5.72441
3.81144 0.815156 5.71139
3.85475 0.812212 5.70203
3.97239 0.803352 5.67689
4.39941 0.754287 5.59118
4.40609 0.751329 5.59056
5.30528 0.641478 5.41223
5.47774 0.622132 5.37746
5.88418 0.579861 5.29443
4.21048 -1.49925 6.37839
3.70421 -1.41254 6.4706
3.54263 -1.39295 6.50269
2.12186 -1.19923 6.77783
5.41335 1.95324 4.95446
5.40285 1.94535 4.95956
2.03023 -1.17759 6.79256
1.94913 -1.16758 6.80861
6.15558 -3.00009 6.40863
6.09648 -2.98549 6.41792
5.88118 -3.02358 6.48183
5.58771 1.69201 4.9989
0.296355 1.18039 6.42965
0.311348 1.17994 6.42622
0.333829 1.17831 6.4214
0.386324 1.17636 6.40951
0.410038 1.17516 6.40425
0.442857 1.17111 6.39776
0.468064 1.16751 6.39293
0.48414 1.16137 6.39112
0.506461 1.15734 6.38712
0.527057 1.15756 6.38213
0.58869 1.15412 6.36856
0.612107 1.15285 6.3634
0.666525 1.14246 6.35384
0.721277 1.14063 6.34138
0.749445 1.13878 6.33527
0.776256 1.1333 6.33067
0.804208 1.13259 6.32424
1.15644 1.09175 6.25366
1.25243 1.08675 6.23241
1.3307 1.07665 6.21707
1.62369 1.04532 6.15749
1.99336 1.0114 6.08047
2.24484 0.983234 6.02976
2.27044 0.984125 6.02336
2.38481 0.974582 5.99922
2.50254 0.960634 5.97573
2.7538 0.937621 5.92337
2.82862 0.930191 5.90797
2.85217 0.921864 5.90509
2.96693 0.90979 5.88169
2.99955 0.90497 5.8755
3.17563 0.885839 5.83979
3.29145 0.874295 5.81596
3.33469 0.872227 5.80633
3.35408 0.867935 5.80312
3.36793 0.872932 5.79817
3.40565 0.861747 5.79285
3.52997 0.857072 5.76474
3.76177 0.82447 5.72018
3.9268 0.811037 5.68523
4.0078 0.80501 5.6679
5.56219 0.622275 5.35727
5.7291 0.60234 5.32402
5.78134 0.600979 5.312
5.83819 0.593345 5.30095
1.84625 -1.14919 6.8271
1.72465 -1.13357 6.85096
1.65766 -1.13092 6.86607
1.51719 -1.10442 6.89085
5.86548 -3.02741 6.48683
5.86132 -3.03588 6.49062
5.3793 -2.99376 6.59173
4.93366 -2.94312 6.68136
4.76612 -2.92574 6.71561
4.24761 -2.86655 6.8198
3.30947 -2.75794 7.00783
3.29766 -2.75864 7.01088
3.06744 -2.7439 7.06095
3.98842 1.94075 5.2985
3.77785 1.93866 5.34941
3.62721 1.93321 5.38714
3.57136 1.93334 5.40043
3.40024 1.93432 5.44092
3.3289 1.93262 5.4585
3.178 1.92565 5.4968
3.1281 1.92608 5.50856
2.14671 1.92616 5.74264
3.09882 1.92818 5.51485
3.05045 1.92566 5.52722
3.01581 1.92522 5.53563
2.75242 1.9227 5.59929
2.73579 1.92249 5.60333
4.09088 1.78636 5.3249
0.351612 1.18077 6.41634
0.425492 1.17956 6.39912
0.460775 1.16974 6.39393
0.47763 1.1731 6.38881
0.495302 1.17181 6.38502
0.5153 1.16717 6.38177
0.538128 1.16474 6.37713
0.560156 1.16432 6.37201
0.63372 1.15646 6.35705
0.659024 1.15304 6.35214
0.687824 1.1431 6.34854
0.699381 1.14321 6.34575
0.832583 1.13725 6.31594
0.852178 1.13686 6.31139
0.897582 1.12962 6.30294
0.979601 1.11426 6.28844
1.02396 1.11852 6.27645
1.20033 1.10144 6.24
1.52157 1.06269 6.17613
1.55627 1.06312 6.16771
1.66416 1.04831 6.14685
1.80276 1.03862 6.11698
2.01172 1.01322 6.0755
2.04147 1.01347 6.06832
2.51553 0.965244 5.97111
2.68773 0.948799 5.93545
2.78371 0.938163 5.91605
2.8415 0.92745 5.9058
2.95832 0.919046 5.8807
2.97902 0.917846 5.87615
3.00166 0.912125 5.87264
3.02558 0.911927 5.867
3.0553 0.910523 5.86037
3.08332 0.904909 5.85553
3.10879 0.911124 5.84741
3.45488 0.866415 5.77957
3.47088 0.872259 5.77383
3.50528 0.862073 5.76898
3.58993 0.859692 5.74957
3.6284 0.850751 5.74334
3.71269 0.842532 5.72594
3.72515 0.844825 5.72221
3.92531 0.81405 5.6846
3.95598 0.81687 5.67635
4.32255 0.785393 5.59927
4.74697 0.73601 5.51429
5.34985 0.660371 5.39538
5.45741 0.642599 5.37557
5.60145 0.626316 5.34657
5.86722 0.597536 5.29265
5.8952 0.590466 5.2883
1.46173 -1.10109 6.90298
2.91484 -2.7296 7.09264
2.89481 -2.71835 7.09371
2.858 -2.72192 7.10367
2.73317 -2.70366 7.12744
2.59709 -2.7061 7.1607
0.02242 -2.46543 7.69564
2.67321 1.91737 5.61994
2.66794 1.92208 5.61965
2.28367 1.91847 5.7125
2.2673 1.91959 5.71604
2.23932 1.92503 5.72092
2.01199 1.92299 5.77583
1.99585 1.92373 5.77943
1.98406 1.91792 5.78416
1.96528 1.91789 5.78865
1.62561 1.91939 5.86919
1.57918 1.91626 5.88129
1.49269 1.92178 5.9001
1.47541 1.91812 5.90543
1.38833 1.9164 5.92677
1.31673 1.91136 5.94551
1.14061 1.91487 5.98637
1.11661 1.91013 5.99366
0.700587 1.90435 6.09481
0.220403 1.90529 6.20904
0.0633053 1.8992 6.24853
0.0562924 1.90674 6.24771
5.70267 1.67633 4.97664
5.58147 1.68243 5.00354
0.335721 1.19026 6.41701
0.372044 1.18845 6.40894
0.402833 1.18717 6.40202
0.438164 1.18411 6.39459
0.452638 1.18336 6.39139
0.580895 1.17045 6.36504
0.681082 1.15693 6.3456
0.703565 1.15446 6.34105
0.722948 1.1538 6.33664
0.742451 1.15305 6.33224
0.765098 1.14651 6.32899
0.79454 1.14529 6.32236
1.11696 1.11378 6.25583
1.54227 1.06103 6.17174
1.64707 1.0571 6.14803
1.72609 1.04981 6.13158
1.79255 1.048 6.11633
1.88487 1.03352 6.09907
1.92883 1.02764 6.09052
1.95321 1.02706 6.0849
1.98571 1.02729 6.07707
2.01518 1.01972 6.07253
2.41491 0.984931 5.98863
2.81681 0.946571 5.90539
2.83474 0.9439 5.90199
2.98199 0.925075 5.87306
3.13559 0.909508 5.84155
3.16026 0.904863 5.83719
3.24572 0.896095 5.81969
3.26849 0.894713 5.81472
3.33187 0.889228 5.8014
3.42331 0.878032 5.78328
3.48643 0.872157 5.77015
3.60963 0.859274 5.74501
3.7743 0.843209 5.71102
3.99511 0.820742 5.66574
4.07584 0.809486 5.65019
4.25941 0.795504 5.611
4.29313 0.795309 5.60302
4.34446 0.781311 5.59539
4.81177 0.733808 5.49955
4.91296 0.729146 5.47695
4.95827 0.718041 5.4698
5.00113 0.716875 5.45996
5.32503 0.663321 5.40033
5.75503 0.620891 5.31172
5.82294 0.61513 5.29742
5.86031 0.611111 5.28983
5.87626 0.608528 5.28687
1.42691 -1.09049 6.9078
1.35059 -1.09771 6.92838
1.31881 -1.0898 6.93336
1.16211 -1.06929 6.96398
1.13372 -1.06819 6.9704
0.774077 -1.01574 7.03892
0.0421024 1.89771 6.25407
0.00783117 1.89904 6.26181
-0.0150784 1.8997 6.26706
-0.0489587 1.90694 6.27276
-0.065579 1.90682 6.27676
-0.0811892 1.90652 6.28059
-0.176321 1.90191 6.30479
0.73229 -1.0072 7.04607
0.683168 -1.00908 7.05841
0.671823 -0.998483 7.05763
5.8025 1.94786 4.8634
5.78416 1.94904 4.86739
5.75827 1.94747 4.87408
5.7463 1.94591 4.87745
5.69158 1.9437 4.89123
5.66921 1.94275 4.89688
0.318964 1.20118 6.41741
0.498192 1.18598 6.37966
0.522127 1.18228 6.37517
0.54795 1.18015 6.36971
0.598711 1.17333 6.35985
0.626768 1.17164 6.35371
0.650072 1.16993 6.34871
0.760813 1.15902 6.32589
0.784214 1.15441 6.32182
0.802506 1.15531 6.31716
0.825958 1.1503 6.31322
0.837261 1.15274 6.30972
0.850705 1.14705 6.30839
1.20748 1.1111 6.23512
1.56167 1.0754 6.16238
1.59294 1.06645 6.15787
2.06173 1.0202 6.06127
2.77104 0.954285 5.91377
2.98134 0.932379 5.87081
3.00221 0.930638 5.86641
3.05995 0.927211 5.85376
3.07827 0.923858 5.8505
3.3448 0.901223 5.79437
3.37035 0.895772 5.79007
3.39495 0.891605 5.78557
3.43288 0.889333 5.77727
3.45903 0.886135 5.77209
3.51598 0.882211 5.75979
3.64451 0.86387 5.73517
3.66932 0.859588 5.73067
3.74608 0.861977 5.71157
4.27089 0.796774 5.60784
4.32252 0.795967 5.59579
4.35274 0.794765 5.58898
4.39216 0.786286 5.58237
4.42922 0.781408 5.57514
4.58098 0.769721 5.54278
4.80464 0.743873 5.49794
5.35029 0.669787 5.39217
5.44666 0.663602 5.37122
5.48279 0.655704 5.3652
5.5994 0.647796 5.33999
5.67327 0.636469 5.3261
0.534746 -0.974474 7.08242
0.075972 -0.918969 7.17358
0.0544056 -0.91156 7.17629
-0.00542335 -0.891863 7.18407
5.55138 1.94564 4.92404
5.50385 1.94349 4.93608
5.4806 1.94353 4.94162
5.64476 1.67101 4.9922
0.299809 1.20764 6.41985
0.342822 1.20764 6.40959
0.367198 1.19931 6.40652
0.381632 1.20569 6.40097
0.404465 1.19701 6.39839
0.422652 1.19973 6.39315
0.449983 1.19842 6.38706
0.469473 1.19615 6.38316
0.566411 1.18613 6.36334
0.669354 1.17501 6.34244
0.690914 1.17335 6.33784
0.711985 1.16947 6.33409
0.736316 1.16833 6.32867
0.817616 1.16047 6.31186
0.865987 1.1527 6.30288
0.89245 1.15151 6.29696
0.924756 1.14729 6.29064
1.01734 1.13227 6.2735
1.06837 1.12974 6.26216
1.1126 1.12348 6.25367
1.2858 1.11089 6.2165
1.31166 1.108 6.21129
1.32774 1.10145 6.2096
1.60807 1.07743 6.15064
1.64186 1.07686 6.14277
1.72214 1.06471 6.12762
1.7842 1.05767 6.11513
1.87607 1.04764 6.09652
1.90887 1.04772 6.08867
1.92377 1.04565 6.0858
1.94532 1.04304 6.08152
1.98284 1.04054 6.07339
2.04085 1.03095 6.06271
2.76264 0.962618 5.91303
3.12742 0.929867 5.83679
3.18244 0.924326 5.82549
3.21619 0.924825 5.81728
3.286 0.909581 5.80564
3.41318 0.898832 5.77885
3.47572 0.894739 5.76527
3.53225 0.88833 5.7539
3.62131 0.868277 5.73926
3.71422 0.864208 5.71843
3.80867 0.859459 5.69747
3.84917 0.85305 5.68992
3.86026 0.849832 5.68833
4.22231 0.810095 5.61505
4.37929 0.797305 5.58181
4.40949 0.794352 5.57558
4.49528 0.785776 5.55794
4.52548 0.785722 5.55075
4.60918 0.77306 5.53496
4.64338 0.767913 5.52849
4.71493 0.759817 5.51409
4.73188 0.768276 5.50726
4.77988 0.756866 5.49957
5.10886 0.722174 5.43251
5.40757 0.676781 5.3762
5.51997 0.65946 5.35509
5.5558 0.655783 5.34776
5.59792 0.647646 5.34039
5.74841 0.640834 5.30673
5.82704 0.630646 5.29133
-0.314488 -0.849701 7.24392
4.00819 1.9361 5.29531
3.96117 1.93556 5.3067
-0.464372 -0.82817 7.27258
-0.484051 -0.82553 7.27641
6.10297 -2.9954 6.41964
3.86874 1.93332 5.32949
3.81092 1.93194 5.34374
3.55323 1.928 5.40651
3.48912 1.92586 5.42251
3.38564 1.92724 5.44674
3.31046 1.92602 5.46508
3.17404 1.91877 5.50001
3.14542 1.91464 5.50819
3.04724 1.91595 5.53118
2.71325 1.91836 5.61006
2.6994 1.91319 5.61507
2.69209 1.91454 5.61637
2.65225 1.91816 5.62468
2.28588 1.91209 5.71408
2.14805 1.90711 5.7486
2.13632 1.90736 5.75131
2.27708 1.91153 5.71636
5.57639 1.67002 5.00884
0.318165 1.21437 6.41326
0.357261 1.21589 6.40343
0.40024 1.20919 6.39538
0.487388 1.20131 6.37719
0.527881 1.19502 6.3696
0.588476 1.19196 6.35615
0.60423 1.18968 6.35315
0.618701 1.18622 6.35083
0.637513 1.18549 6.34658
0.765133 1.17192 6.32061
0.789589 1.17007 6.31538
0.839515 1.16692 6.30451
0.853646 1.16209 6.30273
1.08084 1.13753 6.25662
1.10356 1.13598 6.25171
1.16021 1.12655 6.24131
1.20351 1.12424 6.23173
1.40644 1.1002 6.19124
1.45095 1.09912 6.18098
1.49871 1.09754 6.17011
1.68989 1.07912 6.13057
1.7678 1.06942 6.11518
2.07133 1.03354 6.05458
2.09147 1.03755 6.04846
2.27741 1.01774 6.01063
2.44063 0.998005 5.97819
3.14958 0.928155 5.83207
3.3034 0.918909 5.79842
3.35592 0.912621 5.78796
3.44066 0.901825 5.77131
3.45615 0.904999 5.76656
3.50131 0.896596 5.75856
3.51846 0.896136 5.75462
3.54771 0.888896 5.75002
3.5559 0.884604 5.74948
3.65441 0.884334 5.72607
3.70887 0.876145 5.71578
3.76436 0.870036 5.70455
3.79051 0.873572 5.69715
3.85651 0.863695 5.68466
3.9609 0.84838 5.6648
4.44803 0.793062 5.56681
4.49525 0.788643 5.557
4.69044 0.779086 5.51359
5.35839 0.708375 5.37753
5.38511 0.704175 5.37254
5.81158 0.647103 5.2896
2.23055 2.08774 5.66943
2.61391 2.09704 5.57492
5.8734 -3.03646 6.48793
5.14132 -2.98192 6.6446
4.64246 -2.91863 6.74277
4.6175 -2.9095 6.74571
4.4054 -2.89489 6.7915
3.89394 -2.84208 6.89612
3.88151 -2.84511 6.90008
2.22975 1.91612 5.72614
2.10866 1.91443 5.75558
2.06717 1.91082 5.76667
2.01576 1.91397 5.7779
1.9817 1.91117 5.78694
1.72599 1.90969 5.84843
1.66133 1.9138 5.8625
1.6409 1.90862 5.86908
1.60069 1.90842 5.87874
1.57254 1.90824 5.88552
1.5637 1.91486 5.88545
1.55264 1.90817 5.89029
1.53706 1.91052 5.89323
1.51183 1.91309 5.8984
1.47693 1.909 5.90807
1.42726 1.91512 5.91791
1.41343 1.91071 5.92266
1.38112 1.90723 5.93151
1.1553 1.90199 5.98711
1.12603 1.90875 5.99186
1.10032 1.90479 5.9993
1.08932 1.90516 6.0018
0.275806 1.22467 6.41997
0.338177 1.2165 6.40778
0.379084 1.21611 6.39815
0.422489 1.21139 6.38935
0.441337 1.20833 6.38586
0.459398 1.21043 6.38086
0.505218 1.20675 6.37114
0.549061 1.2005 6.36274
0.573122 1.20038 6.35704
0.656809 1.19047 6.34034
0.695021 1.18615 6.33265
0.718941 1.1825 6.32814
0.743972 1.18179 6.32241
0.808246 1.17531 6.30921
0.827221 1.17486 6.30483
0.883428 1.16179 6.29573
0.943646 1.15873 6.28237
0.972635 1.15296 6.27735
1.00646 1.14597 6.27159
1.20296 1.13158 6.22945
1.24168 1.12468 6.22248
1.29003 1.12346 6.21135
1.31625 1.12205 6.20556
1.51832 1.0969 6.16564
1.54007 1.09321 6.16167
1.6047 1.09367 6.1461
1.62624 1.0867 6.14326
1.66134 1.08636 6.13499
1.84423 1.06516 6.09835
2.17928 1.03093 6.02969
2.22059 1.02706 6.02111
3.20053 0.935233 5.81759
3.37594 0.91835 5.7813
3.41902 0.914058 5.77244
3.49045 0.904016 5.7587
3.61198 0.890628 5.73412
3.72372 0.885817 5.70905
3.74081 0.885181 5.70518
3.81921 0.87045 5.69133
3.84242 0.870055 5.68593
3.93279 0.861936 5.66704
3.95806 0.862703 5.66076
4.68734 0.787039 5.51171
4.71915 0.782278 5.50569
4.75744 0.776119 5.49858
4.80784 0.768555 5.48905
4.89569 0.751995 5.47354
4.94608 0.757145 5.45983
5.41673 0.712669 5.3622
3.04607 2.09501 5.4725
3.5235 -2.80554 6.97245
3.40403 -2.77919 6.99227
3.18429 -2.76476 7.03994
0.86805 -2.5533 7.52285
1.07815 1.90297 6.00519
0.630507 1.89871 6.11338
0.207687 1.89755 6.21462
-0.020231 1.89299 6.2705
-0.153444 1.8935 6.30211
-0.524489 1.89414 6.39041
3.75621 -0.260432 6.07878
3.81432 -0.264518 6.06627
4.10521 -0.277574 6.00117
4.16232 -0.281774 5.98893
0.279534 1.23317 6.41628
0.327112 1.22615 6.40724
0.348033 1.22183 6.40367
0.365495 1.22749 6.39765
0.396882 1.22127 6.3922
0.474851 1.21655 6.37516
0.594505 1.20486 6.35046
0.624575 1.20077 6.34464
0.672481 1.19677 6.33453
0.768339 1.18652 6.31504
0.84733 1.1792 6.2986
0.873953 1.16764 6.29606
0.90836 1.16462 6.28885
0.99011 1.16032 6.27076
1.09238 1.15318 6.24872
1.10978 1.14378 6.24766
1.44992 1.11502 6.17599
1.46651 1.11255 6.17285
1.49132 1.10565 6.1692
1.53997 1.10167 6.1589
1.57801 1.10196 6.14974
1.72953 1.08773 6.11828
1.76366 1.0791 6.11298
1.87324 1.07131 6.0894
2.08507 1.05233 6.04512
2.26239 1.03235 6.0094
2.3811 1.01764 5.98592
2.39559 1.01817 5.9823
2.40859 1.01642 5.97977
2.55371 1.00323 5.94949
2.59834 1.00018 5.93985
3.31152 0.932463 5.79202
3.4332 0.917285 5.76799
3.59213 0.908124 5.7331
3.63846 0.898156 5.72533
3.66559 0.898123 5.71887
3.70677 0.894882 5.71011
3.7615 0.887724 5.69941
3.78914 0.887126 5.69301
4.08732 0.850572 5.63392
4.54942 0.807964 5.53772
4.73673 0.787655 5.49972
4.84457 0.774866 5.47821
4.89183 0.771994 5.46788
4.92048 0.767084 5.46266
5.06162 0.750379 5.43449
5.07895 0.757111 5.42814
5.1132 0.748024 5.42297
5.41848 0.712801 5.36174
5.44164 0.713498 5.35599
5.9263 0.675611 5.25284
3.05694 2.093 5.47056
3.40681 2.09933 5.38502
4.08319 2.10451 5.22196
5.43899 -0.291156 5.68747
5.82566 -5.50862 7.31345
5.61986 -5.49219 7.35713
5.42572 -5.50141 7.40648
5.38174 -5.50759 7.41901
5.28986 -5.50364 7.43962
4.74874 -5.45439 7.55249
5.77912 1.93433 4.87343
5.72081 1.938 4.88614
5.6197 1.93398 4.91158
5.41549 1.9334 4.96049
5.36922 1.93589 4.9707
0.300009 1.23555 6.41061
0.34582 1.2371 6.39917
0.391269 1.23042 6.39053
0.414978 1.22626 6.38625
0.444455 1.2257 6.3794
0.495858 1.22207 6.36833
0.519376 1.21774 6.36415
0.534745 1.2161 6.36102
0.557571 1.21499 6.35594
0.642187 1.20649 6.33855
0.70018 1.20001 6.32686
0.726366 1.19671 6.32169
0.785412 1.19059 6.30962
0.812168 1.18954 6.30359
0.866374 1.18512 6.29211
0.884645 1.17312 6.29171
0.961708 1.17091 6.27405
1.04107 1.15959 6.25885
1.1296 1.15718 6.23852
1.18238 1.14005 6.23157
1.27989 1.13766 6.2091
1.32133 1.13552 6.19992
1.40081 1.12556 6.18424
1.53813 1.11242 6.15581
1.59808 1.10589 6.14365
1.674 1.09826 6.12805
2.03814 1.06065 6.05357
2.1353 1.05274 6.033
3.32539 0.933355 5.78842
3.35722 0.929386 5.78213
3.54504 0.91832 5.74097
3.57497 0.91714 5.73422
3.93327 0.8776 5.66177
3.9501 0.878539 5.65744
4.00716 0.872757 5.64574
4.02224 0.863361 5.64523
4.07739 0.859339 5.6334
4.12269 0.861947 5.62174
4.15321 0.8574 5.61595
4.1781 0.85112 5.61208
4.2072 0.850321 5.60541
4.62776 0.807689 5.51912
4.65652 0.798826 5.51518
4.79138 0.78741 5.48677
4.90715 0.775692 5.46301
4.97742 0.771797 5.44753
5.00367 0.767096 5.44281
5.12822 0.756853 5.41647
5.16097 0.751931 5.41028
5.39335 0.726365 5.36327
5.43579 0.723135 5.35421
5.4668 0.726215 5.34579
5.50932 0.714594 5.33948
5.5352 0.714787 5.33324
1.13374 -5.33646 8.37602
3.98116 1.92672 5.30485
3.94189 1.9252 5.31472
3.88908 1.925 5.32738
3.77466 1.91946 5.3565
3.58203 1.92277 5.40136
3.54079 1.91871 5.41254
3.46335 1.9194 5.43078
0.27902 1.24391 6.41287
0.323115 1.24588 6.4017
0.426838 1.23665 6.37999
0.465044 1.23143 6.3726
0.510854 1.22683 6.36319
0.573193 1.22027 6.35048
0.603029 1.21645 6.34462
0.661293 1.21175 6.33226
0.680495 1.21175 6.32768
0.743833 1.20289 6.31549
0.833515 1.194 6.29703
0.887303 1.18855 6.28599
0.928596 1.17857 6.27943
0.940482 1.18331 6.27503
1.01749 1.1722 6.26032
1.08542 1.17095 6.24452
1.25508 1.14599 6.21227
1.34819 1.13654 6.19317
1.47844 1.12307 6.16654
1.49363 1.12122 6.16352
1.56468 1.12028 6.14688
1.58195 1.11895 6.1432
1.6536 1.1078 6.12978
1.72509 1.10394 6.114
1.81395 1.08919 6.09766
1.8457 1.08532 6.09136
1.8732 1.08262 6.08569
1.94523 1.07762 6.07015
2.14319 1.06357 6.02755
2.24758 1.04684 6.00816
2.42473 1.03066 5.97123
2.46482 1.02658 5.96301
3.6489 0.91261 5.71808
3.76704 0.902339 5.69328
3.7916 0.903195 5.68714
3.87598 0.898893 5.66842
3.91299 0.886875 5.66355
3.9282 0.885462 5.66039
3.97357 0.880038 5.65135
4.07188 0.866367 5.6324
4.22961 0.859539 5.59702
4.27864 0.846002 5.58979
4.31074 0.849596 5.58095
4.34059 0.840903 5.57669
4.36353 0.840832 5.57124
4.39577 0.836491 5.56498
4.4282 0.830623 5.55917
4.57449 0.817797 5.5285
4.92082 0.784973 5.45669
5.01909 0.768927 5.43853
5.04198 0.767864 5.43342
5.3987 0.740272 5.35741
5.41377 0.733763 5.35596
5.43127 0.733564 5.35185
5.4485 0.729028 5.34923
5.61082 0.715865 5.31485
5.86189 0.694494 5.26199
5.92379 0.689207 5.24897
2.25156 -5.48361 8.15782
3.38698 -5.69082 7.9552
5.92084 -1.7356 6.04821
3.33238 1.92205 5.46115
5.84313 -1.7296 6.06477
5.86747 -3.05535 6.49556
5.44764 -3.03538 6.58914
5.27852 -3.00782 6.6204
3.17341 1.91175 5.50247
3.10166 1.91247 5.51935
3.046 1.91111 5.53307
2.67994 1.90692 5.62178
2.28598 1.9033 5.71695
2.27087 1.90615 5.71962
2.2155 1.90764 5.73233
2.00233 1.91032 5.7823
1.78447 1.90942 5.83457
5.9124 1.63966 4.93868
0.355396 1.24822 6.39323
0.39342 1.24615 6.38484
0.443203 1.24135 6.37454
0.481714 1.23719 6.36672
0.523613 1.23371 6.35788
0.542533 1.23071 6.35435
0.619626 1.22254 6.33865
0.699548 1.21556 6.32188
0.720192 1.21446 6.31732
0.762547 1.2084 6.30921
0.792771 1.20433 6.30334
0.851803 1.1993 6.29092
0.875281 1.19746 6.28592
0.907505 1.19633 6.27861
0.9594 1.18879 6.26871
1.0002 1.17478 6.26359
1.13972 1.16574 6.23329
1.61437 1.11963 6.13524
2.00411 1.08005 6.0553
2.0809 1.07223 6.03956
2.48142 1.03304 5.95692
2.54668 1.02779 5.94308
2.78077 1.00674 5.89417
3.50546 0.932463 5.74576
3.73079 0.909423 5.69959
3.83894 0.90175 5.67632
3.8626 0.900647 5.67104
3.91012 0.894591 5.66169
3.92782 0.894932 5.65736
4.09221 0.883515 5.62191
4.10799 0.875084 5.62092
4.12574 0.876998 5.61605
4.19693 0.867925 5.60206
4.20739 0.871636 5.59834
4.23557 0.865015 5.5938
4.28512 0.861061 5.58328
4.2894 0.85306 5.58489
4.33954 0.84594 5.57528
4.45194 0.83857 5.55089
4.48032 0.842401 5.54286
4.58737 0.826962 5.52241
5.09086 0.772894 5.4201
5.19451 0.760615 5.39942
5.24802 0.754464 5.38868
5.27322 0.755289 5.3824
5.27834 0.757642 5.3804
5.39556 0.746754 5.35602
5.47407 0.738548 5.34
5.4968 0.734843 5.3358
5.87742 0.700995 5.25615
5.32132 -1.6747 6.17117
5.15816 -2.9954 6.64503
4.70559 -2.94405 6.73608
4.3269 -2.89917 6.81163
4.23974 -2.88302 6.82711
3.94352 -2.85818 6.88959
3.92862 -2.85513 6.89214
3.81693 -2.85772 6.91964
3.13795 -2.77453 7.05422
2.97926 -2.75633 7.08608
2.67139 -2.72649 7.14969
2.58119 -2.72421 7.17046
1.76636 1.90192 5.84136
1.70972 1.90297 5.85453
1.6266 1.90827 5.87261
1.61095 1.9017 5.8785
1.59171 1.90657 5.88149
1.57983 1.90147 5.88601
1.56031 1.90154 5.89064
1.49316 1.90745 5.90471
1.48597 1.90058 5.90869
1.4608 1.90832 5.91215
1.36737 1.9031 5.93615
1.31813 1.8976 5.94971
1.20134 1.89732 5.97766
1.14686 1.90016 5.98972
0.877948 1.89551 6.05541
0.221359 1.88964 6.21397
0.0080941 1.88802 6.26538
-0.0520091 1.894 6.27774
-0.0687903 1.8936 6.28188
-0.150466 1.88717 6.30348
-0.235315 1.88673 6.32387
0.29778 1.25692 6.40411
0.319921 1.25897 6.39815
0.371095 1.25575 6.387
0.411575 1.25075 6.37899
0.499206 1.24229 6.36087
0.560379 1.23694 6.34804
0.586611 1.23303 6.34307
0.640233 1.22601 6.33259
0.665168 1.22526 6.32689
0.739938 1.2187 6.31122
0.81078 1.20883 6.29757
0.927586 1.19666 6.27371
1.07439 1.18346 6.24304
1.21373 1.16905 6.21454
1.3243 1.15736 6.19201
1.46916 1.14118 6.16279
1.50087 1.13613 6.15688
1.5488 1.13583 6.14555
1.57216 1.12799 6.14256
1.59168 1.12897 6.13758
1.69837 1.11433 6.11695
1.74695 1.11398 6.10548
1.77444 1.10682 6.10128
1.80211 1.10508 6.09525
1.8211 1.1053 6.09065
1.85946 1.1022 6.08251
1.9099 1.09426 6.0731
2.0666 1.08498 6.03877
2.11288 1.07333 6.03157
2.13136 1.07351 6.0271
2.26389 1.06063 5.99973
2.37679 1.04355 5.97842
2.42399 1.04743 5.96588
2.46815 1.04027 5.95771
2.71411 1.02361 5.90452
2.82672 1.00013 5.88538
2.84198 1.00405 5.88045
2.87538 0.997763 5.87456
2.87929 1.00181 5.87229
2.8951 0.995899 5.87047
3.09315 0.981077 5.8281
3.51065 0.94127 5.74162
3.95051 0.897541 5.65109
4.0525 0.890673 5.62902
4.07681 0.887671 5.62421
4.10237 0.884079 5.61929
4.276 0.872454 5.5817
4.28805 0.866986 5.58063
4.31451 0.864548 5.57512
4.34753 0.864904 5.56713
4.35584 0.864211 5.56537
4.41157 0.85279 5.55584
4.4489 0.849456 5.54803
4.63478 0.825433 5.5116
4.70978 0.824066 5.49416
5.38557 0.755146 5.35564
5.40611 0.754705 5.35089
5.64646 0.724783 5.30341
5.81441 0.717527 5.26573
5.8717 0.71123 5.25414
4.14875 -1.50141 6.39382
4.06838 -1.48445 6.40741
2.14858 -2.67277 7.25672
1.99482 -2.66576 7.29109
1.39948 -2.61083 7.41502
0.610396 -2.53832 7.57938
0.514968 -2.53147 7.59989
3.70709 -5.30534 7.75189
3.42955 -5.32842 7.8257
5.5297 -0.296494 5.66759
5.62386 -0.297296 5.64539
5.75252 -0.300196 5.61565
5.76751 -0.299444 5.61183
5.82869 -0.298845 5.59704
3.32123 -5.3213 7.84919
3.28109 -5.32353 7.85951
0.338403 1.26336 6.39229
0.359729 1.26602 6.38633
0.389894 1.26172 6.38055
0.428401 1.25555 6.3734
0.458785 1.25167 6.36743
0.519351 1.24752 6.35435
0.607197 1.23839 6.3364
0.685857 1.23033 6.32029
0.708203 1.22793 6.31575
0.759461 1.22412 6.30477
0.830661 1.21486 6.29084
0.861254 1.2128 6.28422
0.886108 1.20508 6.28083
1.12136 1.18709 6.23064
1.45467 1.15467 6.1618
1.56771 1.13469 6.14141
1.60317 1.13249 6.13368
1.63176 1.13606 6.12568
1.65969 1.12827 6.12159
1.79443 1.11367 6.09425
2.00105 1.09166 6.05221
2.02013 1.09131 6.04777
2.09792 1.08641 6.03083
2.14995 1.08161 6.02
2.19827 1.07944 6.00919
2.23247 1.0727 6.00325
2.27011 1.06584 5.99653
2.29661 1.06632 5.99005
2.32473 1.06019 5.98536
2.35766 1.0561 5.97885
2.4768 1.05227 5.95169
2.52918 1.03947 5.94341
2.65262 1.03182 5.91648
2.77915 1.02227 5.88944
2.95813 1.00117 5.8537
3.00935 0.99404 5.84383
3.88898 0.91021 5.66159
3.90012 0.912506 5.65818
4.13602 0.887429 5.61017
4.4323 0.867792 5.54595
4.44836 0.858345 5.54523
4.46643 0.862836 5.53944
4.59033 0.845802 5.5155
4.62231 0.842861 5.50884
4.61985 0.837908 5.51105
4.69282 0.840606 5.49276
4.73165 0.833921 5.4857
5.29439 0.764758 5.37423
5.33148 0.763878 5.36567
5.79704 0.724703 5.26751
5.84231 0.72185 5.25765
5.92476 0.715956 5.23993
4.03225 -1.46936 6.41106
3.47928 -1.39242 6.51763
3.44622 -1.37874 6.52101
2.30235 -5.22728 8.06129
2.20154 -5.22667 8.08514
1.74294 -5.14751 8.16847
1.4925 -5.13645 8.22457
1.27382 -5.13831 8.27735
1.25528 -5.14492 8.28395
6.04412 1.93401 4.81032
6.02694 1.93484 4.81415
5.82499 1.92708 4.86488
5.80829 1.93294 4.86693
5.7456 1.92655 4.88399
5.57881 1.9285 4.92314
5.55712 1.92719 4.92874
2.14667 1.88708 5.75553
2.13589 1.89156 5.75662
0.296826 1.2719 6.3994
0.406072 1.26682 6.37501
0.478959 1.25783 6.36059
0.537571 1.25188 6.34856
0.565847 1.24916 6.34271
0.62669 1.24332 6.33012
0.653577 1.24055 6.32462
0.723394 1.23387 6.31016
0.775592 1.22513 6.30059
0.795039 1.22537 6.29587
0.957725 1.20707 6.26309
1.01268 1.19725 6.25321
1.02787 1.19693 6.24969
1.16235 1.18017 6.22314
1.57861 1.14874 6.13419
1.61055 1.14626 6.12739
1.64694 1.13988 6.1208
1.67074 1.13934 6.11531
1.87803 1.12104 6.07188
1.93362 1.1089 6.06262
2.12606 1.09306 6.02193
2.29203 1.07894 5.98698
2.31084 1.07474 5.98388
2.33635 1.0675 5.98018
2.35885 1.0641 5.97593
2.40408 1.0612 5.9661
2.5248 1.05065 5.94077
2.58312 1.04356 5.9292
2.72877 1.03065 5.8987
2.95199 1.00913 5.85254
3.01378 1.00738 5.83838
3.07595 1.00032 5.82587
3.18429 0.984802 5.80513
3.21428 0.985114 5.79788
4.709 0.83887 5.48947
