ply
format ascii 1.0
comment Created by Open3D
element vertex 1966
property double x
property double y
property double z
end_header
4.02264 1.27911 5.5062
3.94879 1.27379 5.5256
2.81354 1.29393 5.7902
2.69896 1.29854 5.81605
2.01728 1.31723 5.97276
1.98094 1.31438 5.98238
1.88152 1.31375 6.00634
1.15923 1.32804 6.1742
1.12914 1.33048 6.18059
0.847298 1.33437 6.24664
0.272024 1.35352 6.37778
0.250714 1.35509 6.38235
-0.305359 3.53018 5.79797
-0.285109 3.53623 5.79114
-0.244303 3.53649 5.7813
-0.150153 3.54068 5.75742
-0.112452 3.5408 5.74838
0.232056 1.35543 6.38669
0.206917 1.35654 6.39233
0.104377 1.35904 6.41601
0.0671976 1.35718 6.42551
-0.0243288 1.35961 6.44657
-0.0311525 1.34596 6.4527
-0.219861 0.311807 6.8388
-0.214939 0.315125 6.83653
1.93461 0.291212 6.33084
3.43587 0.273585 5.97797
3.85122 0.266905 5.88093
5.59886 0.246478 5.47012
5.87696 -5.99318 7.46121
3.85041 0.275235 5.87838
5.58483 1.22704 5.15013
5.56759 1.23032 5.15316
5.53204 1.22817 5.16236
5.46101 1.23001 5.17873
5.44206 1.23248 5.18244
5.3913 1.23435 5.19395
5.3595 1.23595 5.20102
5.33834 1.23151 5.20754
5.24384 1.23768 5.22809
5.22355 1.23665 5.23327
5.15405 1.23105 5.25173
4.85592 1.2319 5.32268
-0.573129 3.52169 5.86474
-0.271246 3.54073 5.78634
-0.213524 3.54293 5.77182
-0.098958 3.54768 5.74289
4.35651 1.24968 5.43613
4.27012 1.25462 5.45515
4.18554 1.25622 5.47483
3.89374 1.2649 5.54168
3.79499 1.26535 5.56513
3.52662 1.27443 5.62625
3.3666 1.27355 5.66478
3.28325 1.27864 5.68301
3.00892 1.28558 5.74627
2.74438 1.29174 5.80744
2.67628 1.29568 5.82241
2.17223 1.30201 5.94076
1.96558 1.30601 5.98881
1.88871 1.3123 6.0051
1.84449 1.30679 6.01748
1.5178 1.31191 6.09385
0.870858 1.32272 6.24486
0.193096 1.34936 6.398
0.171349 1.34984 6.40304
0.148914 1.35033 6.40824
0.127038 1.35099 6.41325
0.0937316 1.35276 6.42062
0.0109378 1.34629 6.44254
-0.0197457 1.3447 6.4504
-0.0283485 1.35369 6.44948
-0.654675 3.52312 5.88376
-0.538682 3.52803 5.85442
-0.468672 3.53189 5.83642
-0.436659 3.53224 5.82866
-0.429659 3.52833 5.82828
-0.194893 3.54657 5.76617
-0.0970905 3.55309 5.74065
4.00201 0.27429 5.84247
5.73622 0.254748 5.43457
5.98002 0.279102 5.36829
6.14657 -5.92904 7.37564
3.65042 0.286289 5.92252
3.67863 0.287384 5.91541
2.09514 -5.26147 8.12349
1.50079 -5.21207 8.24921
1.4517 -5.16265 8.24464
1.42131 -5.22214 8.27152
0.386899 -5.187 8.50707
0.284735 -5.18705 8.5315
0.061865 -5.17211 8.57982
-0.0372789 -5.11769 8.58556
5.74311 -5.59983 7.36348
5.93202 -2.04924 6.14753
5.5028 1.2186 5.17251
5.48151 1.22396 5.17582
5.41593 1.22222 5.19207
5.31977 1.22771 5.21324
5.28945 1.22614 5.22099
5.05173 1.23151 5.27602
4.4544 1.24244 5.41513
4.42807 1.24018 5.42217
4.38494 1.24203 5.43186
4.29739 1.24925 5.4504
4.07063 1.25806 5.50167
3.69263 1.26026 5.59126
3.66991 1.26227 5.59603
3.57611 1.26484 5.61759
3.41494 1.26958 5.65453
3.1997 1.26917 5.7061
2.9502 1.2782 5.76273
2.80173 1.29022 5.79424
2.54892 1.29274 5.85381
2.50349 1.28712 5.86652
1.50503 1.309 6.09786
1.0302 1.31992 6.20771
0.909392 1.32071 6.23631
0.255959 1.34248 6.38525
0.232561 1.34376 6.39042
0.216559 1.34214 6.39478
-0.728123 3.52296 5.90136
-0.591226 3.53362 5.86514
-0.468646 3.53731 5.83463
-0.327673 3.54575 5.79817
-0.289019 3.54766 5.7883
-0.27129 3.54778 5.78403
-0.22821 3.54662 5.77411
-0.177805 3.55385 5.75969
-0.09899 3.55846 5.73934
0.112297 1.34703 6.41808
0.0772078 1.34544 6.42699
0.0598607 1.34511 6.43124
-0.029428 1.34124 6.45385
3.73416 0.290678 5.90106
3.87788 0.285289 5.8685
3.96342 0.284297 5.84839
3.97216 0.286773 5.84548
4.09605 0.276268 5.81935
5.10986 0.23925 5.58933
5.42539 0.268102 5.50443
5.60544 0.267333 5.46167
5.77108 0.26218 5.42379
6.06771 0.289433 5.34393
4.8095 -5.53505 7.56518
4.54174 -5.50255 7.61844
4.3941 -5.48153 7.64678
4.37092 -5.48838 7.65458
4.1748 -5.45552 7.6906
3.8816 -5.41428 7.74705
3.84344 -5.40379 7.75271
3.48954 -5.38409 7.83077
3.00587 -5.36113 7.93876
2.85221 -5.36206 7.97578
2.71606 -5.35369 8.00555
5.38519 -1.99135 6.25909
4.23055 -1.80857 6.47469
5.98879 1.21371 5.058
5.57117 1.21311 5.15798
5.55102 1.21114 5.16344
5.4619 1.21587 5.18318
5.44218 1.21498 5.18819
5.40167 1.21753 5.19702
5.35563 1.21722 5.20812
5.11812 1.21992 5.26398
-0.563499 3.53444 5.85824
-0.535669 3.53453 5.85156
-0.306227 3.55302 5.79065
-0.283686 3.55408 5.78491
-0.268547 3.55348 5.78149
5.10432 1.22276 5.26634
5.01339 1.22069 5.28875
4.98028 1.21702 5.29787
4.42923 1.23301 5.42426
4.39555 1.23859 5.43047
4.38366 1.23522 5.43442
4.35845 1.2351 5.44048
4.26549 1.24397 5.45977
4.24228 1.24106 5.46627
3.78777 1.25545 5.57012
3.5071 1.25773 5.63643
3.14817 1.26437 5.71999
3.00653 1.27577 5.75007
2.63732 1.27677 5.83796
2.37144 1.28434 5.89899
2.16504 1.29265 5.94556
2.0351 1.28767 5.97825
2.00485 1.29001 5.9847
1.95655 1.29257 5.9954
1.75781 1.29485 6.04213
1.46763 1.30349 6.10862
1.15703 1.3141 6.17933
1.03048 1.31288 6.20996
0.949115 1.31481 6.22877
0.246347 1.33501 6.39001
0.201182 1.33492 6.40083
0.181676 1.33534 6.40536
0.16421 1.33535 6.40953
0.143246 1.33687 6.41403
0.120248 1.33866 6.41894
0.100956 1.33852 6.42359
0.045749 1.33847 6.4368
4.10188 -1.00563 6.24066
-0.70624 3.53365 5.8926
-0.601182 3.54328 5.86433
-0.590872 3.54352 5.86179
-0.299962 3.56157 5.78633
-0.279341 3.56121 5.78152
-0.173766 3.56572 5.75481
-0.131931 3.56661 5.74452
3.94391 0.28804 5.85182
3.95212 0.291124 5.84884
4.11867 0.284432 5.81125
5.02196 0.242689 5.6092
5.047 0.243429 5.60297
5.13691 0.247168 5.58026
5.67989 0.271779 5.44241
4.19407 -1.79669 6.47949
4.15125 -1.79411 6.48887
3.7038 -1.70424 6.56614
3.46679 -1.66945 6.6113
6.05544 1.20467 5.04506
5.9886 1.20543 5.06078
5.50833 1.19985 5.17737
5.48693 1.2072 5.18006
5.39585 1.20826 5.20147
5.33295 1.20651 5.21708
5.31057 1.20728 5.22217
5.08124 1.21244 5.27526
4.95644 1.21599 5.30391
4.90305 1.21314 5.3176
4.86827 1.2156 5.3251
4.48887 1.22833 5.41155
4.46647 1.2264 5.41754
4.17716 1.2358 5.48356
4.15124 1.23674 5.48945
4.09276 1.23461 5.50412
4.0706 1.24299 5.50665
3.64442 1.24938 5.60637
3.62449 1.24952 5.61108
3.58373 1.25078 5.62041
3.0869 1.25754 5.73688
2.99071 1.26868 5.75619
2.9348 1.26352 5.77125
2.82808 1.26326 5.79684
2.53632 1.26835 5.86487
1.54571 1.28988 6.09445
1.51529 1.29982 6.09844
0.262574 1.32172 6.39052
0.25417 1.32364 6.39189
0.231365 1.32798 6.39591
0.12844 1.33057 6.41965
0.0851531 1.33109 6.42982
0.0651957 1.33215 6.43424
-0.532786 3.54668 5.84686
-0.51516 3.54771 5.84232
-0.482119 3.55104 5.83332
-0.311836 3.56223 5.78895
-0.107903 3.57359 5.73648
0.0333747 1.32637 6.44375
-0.000475906 1.32653 6.45178
1.17016 0.320254 6.50391
1.37739 0.337916 6.44857
1.60987 0.327075 6.3966
3.44564 0.310267 5.96354
3.80258 0.301549 5.88113
3.8776 0.301119 5.86335
3.94309 0.299963 5.84808
4.10325 0.291047 5.81276
3.39209 -1.67271 6.63022
3.28965 -1.65189 6.64783
2.03089 -1.45746 6.88447
1.96143 -1.43693 6.89429
1.82176 -1.41844 6.92156
5.60896 1.19413 5.15521
5.58246 1.19369 5.16169
5.47053 1.19677 5.18742
5.446 1.19851 5.1927
5.41844 1.19488 5.20048
5.37511 1.20034 5.20904
5.24142 1.20215 5.24038
4.97417 1.20535 5.30318
4.85244 1.20881 5.33112
4.82373 1.21171 5.33703
4.73666 1.2118 5.3578
4.71072 1.21282 5.36366
4.65405 1.2133 5.37704
4.58725 1.21985 5.39084
4.56553 1.22066 5.39576
4.46219 1.21482 5.42238
4.44202 1.22091 5.42519
4.37479 1.22377 5.44031
4.35139 1.22175 5.44657
4.25857 1.22826 5.4666
-0.738404 3.5418 5.8976
-0.675754 3.54831 5.88048
-0.634735 3.55038 5.87
-0.533269 3.55204 5.84521
-0.432368 3.5582 5.81907
-0.304841 3.57105 5.78437
-0.281388 3.57054 5.77893
-0.223464 3.5698 5.76534
-0.17151 3.57394 5.75156
-0.117 3.57188 5.73922
4.23386 1.22842 5.47245
3.78209 1.23949 5.57674
3.55408 1.23677 5.63211
3.44439 1.24256 5.65641
3.43227 1.24246 5.65934
3.04691 1.25549 5.74711
2.64607 1.26728 5.839
1.72481 1.27844 6.05543
1.45051 1.28513 6.11876
1.30554 1.29456 6.15028
1.22904 1.29027 6.16998
0.260162 1.31427 6.39355
0.240145 1.3153 6.39799
0.216489 1.32083 6.40182
0.194484 1.32068 6.40713
0.172335 1.32077 6.41239
0.150859 1.32361 6.41659
0.119608 1.32712 6.42289
0.108935 1.32426 6.42639
0.048937 1.32549 6.44032
-0.0166946 1.32631 6.45573
2.21144 -1.09656 6.72232
4.90694 0.250346 5.63415
4.93863 0.250647 5.62649
5.64133 0.280695 5.44868
5.80392 0.279574 5.41021
6.06594 0.308226 5.33816
1.76491 -1.40852 6.93187
5.99448 1.19187 5.06385
5.49702 1.18885 5.1837
5.48924 1.1833 5.18739
5.40514 1.18614 5.20655
-0.734622 3.54783 5.89471
-0.292036 3.57676 5.77943
-0.218738 3.57321 5.76308
-0.114129 3.58368 5.73464
5.34684 1.18975 5.21928
5.04279 1.20041 5.28841
4.95884 1.20336 5.3075
4.88452 1.19985 5.32641
4.86904 1.2071 5.32772
4.80295 1.20376 5.34461
4.69103 1.20779 5.37002
4.63418 1.21036 5.38276
4.60985 1.21065 5.38848
4.54577 1.21205 5.40332
4.52313 1.21235 5.40864
4.50049 1.21313 5.41379
4.45447 1.21131 5.42538
4.31028 1.22073 5.45673
4.21498 1.21775 5.48048
4.19062 1.22009 5.48553
4.16197 1.2231 5.49138
4.07284 1.22384 5.51243
4.05364 1.22116 5.5179
4.0297 1.22078 5.52374
3.64834 1.23022 5.61175
3.57324 1.23686 5.6275
3.54288 1.23388 5.63574
3.47222 1.23328 5.65282
3.38651 1.23751 5.6719
2.30034 1.26173 5.92343
2.16448 1.26293 5.95549
1.88965 1.26822 6.01941
1.78963 1.26719 6.04365
1.34567 1.28499 6.14385
1.09491 1.29259 6.20126
0.834417 1.29254 6.26351
0.257693 1.30746 6.39639
0.242905 1.30751 6.3999
0.134751 1.31776 6.42236
0.0937105 1.31789 6.43213
0.0729985 1.31754 6.43719
-0.239228 0.353466 6.82969
0.134741 0.339179 6.74506
3.42209 0.318331 5.9665
3.53334 0.312912 5.94171
3.60406 0.312873 5.92483
3.65015 0.314398 5.91331
3.88882 0.309729 5.85783
4.11967 0.298455 5.80639
5.06904 0.264793 5.59066
-0.735544 3.55688 5.89194
-0.739953 3.54938 5.89547
-0.669392 3.55598 5.87644
-0.512371 3.56527 5.83586
-0.468244 3.56941 5.82395
-0.202686 3.57964 5.75713
5.60331 1.17562 5.16267
5.46397 1.18038 5.19439
5.43862 1.18215 5.19986
5.41694 1.17634 5.20696
5.2584 1.18331 5.24254
5.13128 1.18513 5.27231
4.90764 1.19556 5.3223
4.8939 1.19684 5.32516
4.85087 1.19614 5.33568
4.82678 1.19612 5.34144
4.78261 1.1963 5.35193
4.75739 1.19858 5.3572
4.7349 1.19727 5.36301
4.66847 1.19873 5.3784
4.57951 1.20455 5.39774
4.56474 1.1993 5.403
4.48014 1.20099 5.42265
4.46178 1.19956 5.42751
4.4375 1.20599 5.43119
4.41125 1.20212 5.43874
4.39311 1.20614 5.44175
4.37046 1.20938 5.44609
4.29198 1.21119 5.46425
4.27249 1.20958 5.46943
4.24879 1.20931 5.47518
3.73087 1.22147 5.59492
3.71729 1.22103 5.59831
3.68913 1.2237 5.60415
3.59083 1.22951 5.62572
3.52233 1.22783 5.64265
2.77041 1.24143 5.81781
2.10652 1.25475 5.97204
1.69319 1.268 6.06642
0.240647 1.30053 6.40274
0.226483 1.30652 6.40415
0.202847 1.30769 6.40942
0.180897 1.3083 6.41446
0.160753 1.30812 6.41933
0.119101 1.30996 6.42868
0.0576644 1.31099 6.44302
0.0382204 1.30664 6.4491
-0.623895 3.56281 5.86331
-0.192538 3.59017 5.75123
-0.120445 3.5922 5.73334
5.33189 0.280631 5.52264
5.3518 0.280984 5.51777
5.55304 0.291209 5.46631
5.85463 0.286375 5.39585
0.115518 -1.16859 7.24684
5.26435 -3.37809 6.74524
2.42803 0.304564 6.20855
3.41316 0.32942 5.96498
3.80228 0.321857 5.87451
3.88352 0.317728 5.85646
5.13921 0.267217 5.5731
0.044467 -1.16224 7.26172
5.64312 1.15953 5.15846
5.57768 1.16758 5.17144
5.51341 1.16804 5.18665
5.48474 1.17231 5.19209
5.35275 1.17087 5.2241
5.17984 1.17512 5.26401
5.02363 1.17844 5.30024
4.93022 1.18683 5.31979
4.89158 1.18323 5.33021
4.78966 1.18444 5.35416
4.71648 1.19154 5.3693
4.65326 1.19074 5.38467
4.62816 1.1926 5.39005
4.60246 1.19329 5.39597
4.53799 1.19395 5.41115
4.51764 1.19222 5.41658
4.31523 1.19868 5.46282
4.22817 1.20283 5.48225
4.20687 1.20296 5.48729
-0.662201 3.56354 5.87223
-0.654605 3.5699 5.86832
4.16389 1.2062 5.49649
4.07779 1.20713 5.51676
4.0586 1.20613 5.52167
3.94492 1.20651 5.54871
3.75215 1.2131 5.59259
2.4695 1.24352 5.88902
2.25474 1.24992 5.93822
1.08595 1.27756 6.20836
0.279222 1.29199 6.39634
0.257962 1.29965 6.3989
0.144145 1.30255 6.42513
0.100445 1.30597 6.43445
0.0859042 1.30362 6.4387
0.0145927 1.30537 6.45516
5.602 0.297873 5.45242
5.64566 0.303435 5.44015
5.99821 0.319416 5.35065
3.41224 0.337168 5.96264
3.42346 0.333702 5.96111
-0.435392 -1.07255 7.3468
-0.583624 -1.04934 7.37456
-0.604596 -1.04823 7.3792
3.76363 2.23059 5.25433
5.59686 1.15823 5.16994
5.48415 1.15879 5.19669
5.45871 1.16206 5.20169
5.43384 1.16276 5.2074
5.41137 1.16208 5.21299
5.4023 1.16299 5.21485
5.38911 1.16167 5.21844
5.13527 1.17262 5.27548
-0.624917 3.57172 5.86062
-0.578244 3.57444 5.84857
-0.477918 3.58166 5.82222
-0.455675 3.58225 5.81671
-0.211774 3.59433 5.75446
-0.199476 3.59568 5.75107
-0.156566 3.59995 5.73941
-0.0944209 3.60252 5.72372
4.95788 1.17131 5.3183
4.91724 1.17713 5.32609
4.89346 1.17398 5.33281
4.86842 1.17524 5.33837
4.84571 1.17884 5.34261
4.82303 1.17785 5.34836
4.76572 1.17968 5.36145
4.74259 1.18049 5.36671
4.69704 1.18373 5.37652
4.58434 1.18459 5.40316
4.56225 1.18603 5.40797
4.43174 1.18763 5.43862
4.26296 1.19384 5.4769
4.18751 1.19656 5.49403
3.81566 1.20347 5.58059
3.70282 1.20632 5.60661
3.52198 1.20946 5.64879
3.45548 1.21127 5.66408
3.3246 1.21146 5.69528
3.19767 1.21925 5.72304
3.02922 1.21944 5.76323
2.24028 1.24082 5.94468
1.44083 1.25973 6.12944
1.042 1.2694 6.22155
0.854341 1.27141 6.26572
0.296274 1.28543 6.39443
0.243896 1.2932 6.40439
0.223016 1.29341 6.40931
0.202147 1.29414 6.41405
0.180853 1.29494 6.41888
0.12999 1.29863 6.42981
0.115612 1.2967 6.43388
0.0749445 1.29632 6.44372
0.0552619 1.29697 6.44821
0.0313069 1.29075 6.45599
6.60032e-05 1.29913 6.46069
-0.0236276 1.29583 6.46744
3.4858 0.329037 5.94775
4.10411 0.314403 5.80485
4.13542 0.31346 5.79768
5.09062 0.281017 5.58016
5.13904 0.276227 5.57017
-0.683138 3.57611 5.87308
-0.592408 3.57861 5.85058
-0.567862 3.57649 5.84542
-0.547128 3.58141 5.83884
-0.145419 3.6036 5.73555
-0.133628 3.60939 5.73082
5.27251 0.297769 5.53117
5.34774 0.29631 5.51368
5.45258 0.304973 5.48578
5.9756 0.328741 5.35298
6.01624 0.328828 5.34324
4.09444 2.24532 5.17044
5.45823 2.24995 4.84307
5.6587 2.25105 4.79481
5.83846 2.25319 4.75115
5.61192 1.14401 5.17103
5.36897 1.1547 5.22555
5.06373 1.16426 5.29533
4.79953 1.17165 5.35602
4.7232 1.17459 5.37329
4.67749 1.17637 5.38362
4.64467 1.1739 5.39227
4.62094 1.17611 5.39722
4.38285 1.18164 5.45228
4.3686 1.1785 5.45672
4.24606 1.18351 5.48434
4.16874 1.18452 5.50248
4.12677 1.18953 5.51086
3.91379 1.19413 5.56023
3.75717 1.1954 5.59723
3.69009 1.19715 5.61268
3.60232 1.19767 5.63348
3.43426 1.20415 5.6715
3.3241 1.20285 5.69825
2.82759 1.21597 5.81255
2.05399 1.23861 5.98991
1.7306 1.24136 6.06627
1.56182 1.24801 6.1044
1.4703 1.25166 6.12506
1.31281 1.25382 6.16198
1.22389 1.25475 6.18292
0.280882 1.2792 6.40017
0.260944 1.28593 6.40271
0.166079 1.28805 6.42468
0.144044 1.28818 6.4299
0.102403 1.29 6.43925
0.0847977 0.37088 6.74653
4.06501 0.33009 5.80902
-0.735458 3.57676 5.88537
-0.54851 3.5858 5.83772
-0.519461 3.58908 5.8297
-0.203714 3.60632 5.74857
-0.172856 3.6108 5.73973
4.11853 0.321549 5.79905
4.18001 0.319979 5.78488
5.0432 0.293887 5.58724
5.40622 0.315578 5.49336
5.44827 0.320024 5.48184
5.71047 0.315786 5.42059
5.98356 0.338423 5.34788
6.0677 0.338365 5.3278
5.96265 2.25275 4.72163
5.76138 1.12927 5.14018
5.62767 1.13849 5.16909
5.60233 1.14332 5.17355
5.55029 1.13396 5.18907
5.50321 1.13611 5.19961
5.47704 1.14292 5.20362
5.45042 1.14304 5.20994
5.42584 1.14536 5.21505
5.29634 1.1495 5.24462
5.14286 1.15242 5.28033
5.09383 1.14764 5.29362
5.00955 1.15343 5.31185
4.9553 1.15462 5.32442
4.90924 1.15949 5.33381
4.8846 1.16108 5.33918
4.85386 1.1616 5.34635
4.82775 1.16189 5.35249
4.78296 1.16267 5.36294
4.75914 1.16219 5.36879
4.56422 1.17308 5.41177
4.47906 1.16862 5.43358
4.45712 1.17093 5.43807
4.35795 1.17024 5.46199
3.89988 1.18482 5.56662
3.73194 1.183 5.60735
3.67336 1.18814 5.61965
2.9615 1.20778 5.78325
2.51946 1.21671 5.88592
2.43223 1.22017 5.90562
1.51732 1.24228 6.11692
-0.506243 3.59434 5.82481
-0.218091 3.61353 5.74963
-0.187736 3.61415 5.74218
1.1855 1.24792 6.19435
1.10607 1.25544 6.21084
0.841639 1.25786 6.27322
0.248807 1.27911 6.40786
0.230226 1.27859 6.41247
0.209476 1.28024 6.41688
0.188651 1.28048 6.42178
0.129985 1.28152 6.43546
0.0847024 1.284 6.44545
0.067707 1.28297 6.44986
0.0472686 1.28336 6.45461
-0.00154756 1.27818 6.46798
-0.0130589 1.28481 6.46855
-0.0255668 1.2856 6.47127
5.30505 -0.929401 5.92806
5.6379 -0.893216 5.8366
2.49295 0.325443 6.18615
2.53341 0.331918 6.17435
3.61206 0.346363 5.91187
4.33059 0.31014 5.75214
5.97273 2.25378 4.71888
2.47264 -5.31497 8.05094
0.0150668 0.389856 6.75694
2.52852 0.335121 6.17446
2.10848 -5.27741 8.12556
-0.738 3.5854 5.88313
-0.736923 3.58797 5.88202
-0.586132 3.5961 5.84332
-0.575785 3.59072 5.84262
-0.199121 3.61885 5.74335
2.04196 -5.25286 8.13336
1.99319 -5.25518 8.14578
0.517285 -5.20486 8.48181
0.0455158 -5.16982 8.58297
5.17948 -5.56048 7.48517
4.74438 -5.53552 7.58089
1.31872 -6.11357 8.58998
1.29112 -6.11175 8.59597
1.27398 -6.10869 8.59906
1.25231 -6.10793 8.60398
5.65028 1.13176 5.16591
5.51929 1.12729 5.19868
5.40602 1.13871 5.22197
5.38566 1.13705 5.22738
5.2947 1.13705 5.24912
5.07265 1.14647 5.29906
4.80707 1.15416 5.35998
4.74083 1.15539 5.3754
4.6704 1.15993 5.39073
4.61378 1.15677 5.4053
4.5892 1.15611 5.41139
4.51317 1.16217 5.42756
4.38329 1.16246 5.4585
4.29113 1.16708 5.47899
4.14181 1.16825 5.51428
4.09453 1.16801 5.52566
3.44716 1.18754 5.67389
3.16744 1.19281 5.73899
2.79681 1.20222 5.82443
1.96204 1.22452 6.01653
1.94814 1.22468 6.0198
1.38181 1.23912 6.15035
1.2989 1.23942 6.17006
1.14614 1.24303 6.20536
0.294075 1.26434 6.40191
0.27308 1.27136 6.40461
0.175296 1.27369 6.42721
0.159311 1.27404 6.43091
0.105786 1.27754 6.44255
0.0697754 1.26978 6.45371
0.0409801 1.27283 6.45959
0.0315398 1.27652 6.46062
-0.0237037 1.27211 6.47527
-0.72896 3.59688 5.87718
-0.642875 3.59749 5.85641
-0.63631 3.59515 5.85562
-0.449885 3.61109 5.80582
-0.192943 3.62493 5.73986
4.4633 -5.51086 7.63992
3.67049 0.354641 5.89518
3.73572 0.352776 5.88021
3.95804 0.350887 5.82772
4.32043 0.314186 5.75324
4.89317 0.309885 5.61781
5.09631 0.300464 5.57238
4.39536 -5.50254 7.65341
4.3043 -5.48108 7.66809
4.29375 -5.48687 7.67252
4.0253 -5.43718 7.72027
3.80465 -5.42551 7.76914
3.29705 -5.42244 7.88941
3.2646 -5.39534 7.88822
2.61205 -5.3582 8.03189
2.48622 0.337129 6.18391
1.18778 -6.10594 8.61875
-0.120162 -5.11858 8.60566
1.33184 -5.20103 8.28593
1.35589 -5.19464 8.27808
5.55513 1.12489 5.19091
5.49656 1.12474 5.20495
5.46899 1.12709 5.21076
5.435 1.12921 5.21818
5.33815 1.12828 5.24163
5.26464 1.13052 5.25845
5.193 1.1306 5.27554
5.01912 1.13621 5.31524
4.99544 1.13883 5.32003
4.90191 1.14201 5.34133
-0.600545 3.60175 5.8449
-0.520705 3.60729 5.82399
-0.506367 3.60893 5.82003
4.87974 1.14195 5.34665
4.84631 1.14366 5.35407
4.78711 1.14492 5.3678
4.69514 1.14974 5.38818
4.49212 1.15248 5.43579
4.3602 1.15669 5.46591
4.21722 1.16218 5.49827
4.18929 1.15778 5.50639
3.67154 1.17632 5.62398
3.51882 1.17961 5.65939
2.74416 1.19962 5.83787
2.22768 1.2122 5.95712
1.74977 1.21816 6.06934
1.10386 1.24213 6.21576
0.878267 1.24876 6.26747
0.285706 1.25765 6.40612
0.278315 1.25759 6.4079
0.26285 1.26298 6.40982
0.240979 1.26387 6.41475
0.217716 1.26589 6.41965
0.196392 1.26611 6.42467
0.143314 1.26936 6.43628
0.120481 1.26812 6.44214
0.0946897 1.2664 6.44887
0.00048761 1.26507 6.47182
2.49321 0.340985 6.18097
2.67916 0.336112 6.13814
2.75605 0.346505 6.11635
3.94457 0.355558 5.82939
3.9653 0.355471 5.82447
4.14627 0.34564 5.78447
5.03645 0.324716 5.57869
5.36556 0.3357 5.49644
5.43856 0.339286 5.47781
5.61588 0.340033 5.4352
6.07087 0.361278 5.31948
0.0457825 0.397242 6.74716
2.64071 0.353294 6.14166
3.57287 0.370957 5.91313
3.93734 0.368177 5.82696
5.48909 -1.99979 6.23705
5.75627 1.10658 5.14889
5.74528 1.11047 5.15023
5.56543 1.11085 5.19308
5.41551 1.11679 5.22693
4.82294 1.13548 5.36235
4.76855 1.13653 5.375
4.74421 1.13677 5.38074
4.67361 1.13769 5.3973
4.62782 1.13844 5.40799
4.59867 1.14018 5.41439
4.51877 1.14443 5.43207
4.47308 1.14562 5.4426
4.29837 1.14767 5.48366
4.12715 1.14842 5.52433
4.07306 1.15376 5.53549
2.7841 1.18857 5.83197
2.73073 1.18736 5.84512
2.36631 1.1976 5.92881
-0.559964 3.60813 5.8331
1.95884 1.21691 6.0198
1.78599 1.21141 6.06291
1.4427 1.22238 6.14132
1.21062 1.23185 6.19364
0.978666 1.23356 6.2485
0.94024 1.23312 6.25782
0.865439 1.23768 6.27419
0.18371 1.25704 6.43069
0.166321 1.25992 6.4339
0.075689 1.26123 6.45512
0.0117954 1.25385 6.47282
-0.0150535 1.26069 6.47698
-0.0233032 1.25466 6.48093
4.10174 -0.969496 6.22878
4.95505 0.326006 5.59771
5.18092 0.341421 5.53866
5.33437 0.340046 5.50245
5.77886 0.347314 5.39386
5.8758 0.347637 5.37059
5.88763 0.348338 5.36753
0.205176 -4.15752 8.21102
-0.237207 0.423305 6.80618
4.17205 -1.80759 6.48835
4.10469 -1.78442 6.4968
3.91264 -1.74849 6.53084
5.77429 1.09812 5.14737
5.76695 1.10146 5.14802
5.74861 1.09482 5.15459
5.48732 1.10796 5.21269
5.46256 1.11041 5.2178
5.20996 1.11721 5.27591
5.15273 1.11511 5.29027
5.13001 1.11528 5.29565
5.1045 1.11537 5.30171
5.00097 1.12105 5.32457
4.97913 1.12015 5.33009
4.90555 1.12467 5.34618
4.87454 1.12494 5.3535
4.69628 1.12768 5.39519
4.42641 1.13519 5.45719
4.36776 1.13989 5.46965
4.23356 1.13972 5.50177
4.18094 1.14085 5.51397
4.01648 1.14578 5.55164
3.79739 1.1588 5.59969
3.56783 1.15736 5.65501
3.08328 1.17228 5.76586
2.79413 1.17856 5.83288
2.21723 1.19748 5.96447
1.82637 1.20402 6.0557
1.73866 1.20882 6.07508
1.66099 1.20892 6.0936
-0.70528 3.61028 5.86711
-0.653929 3.61201 5.85427
-0.578765 3.6124 5.83618
-0.535117 3.61711 5.8242
-0.47326 3.6251 5.80678
1.08736 1.22343 6.22587
0.982128 1.22531 6.25039
0.302076 1.24906 6.40504
0.282337 1.2437 6.41152
0.230006 1.24997 6.42196
0.211748 1.25135 6.42587
0.151872 1.25307 6.4396
0.133717 1.25155 6.44445
0.110389 1.25247 6.44971
0.0947967 1.25429 6.45284
0.0766742 1.2483 6.45915
1.56415 0.399241 6.38373
2.00682 0.396224 6.27896
2.76758 0.369557 6.10599
5.22883 0.355284 5.52264
5.64651 0.360209 5.42123
5.67258 0.354368 5.41692
5.77434 0.354375 5.39261
5.9837 0.384747 5.33257
3.89283 -1.74903 6.53575
5.9845 1.10299 5.09554
5.74746 1.08518 5.15805
5.66813 1.09085 5.17513
5.63032 1.09582 5.18253
5.60928 1.0873 5.19036
5.46981 1.09631 5.22072
5.45492 1.09719 5.22398
5.41138 1.09948 5.23363
5.37259 1.10352 5.24157
5.23817 1.10581 5.27293
5.06976 1.10941 5.31198
4.95653 1.11487 5.33723
4.76095 1.12163 5.38173
4.67136 1.1189 5.40403
4.64662 1.12292 5.40862
4.61331 1.12436 5.41611
5.52557 -3.87629 6.84711
5.49078 -3.87018 6.85341
4.55482 1.1255 5.4297
4.52419 1.12551 5.43702
4.46705 1.13153 5.44868
4.34768 1.12981 5.47777
3.94739 1.14009 5.57002
3.23667 1.15657 5.73439
2.78428 1.17508 5.83638
2.62694 1.17613 5.87362
2.52375 1.17734 5.89788
1.98721 1.19126 6.02148
1.78066 1.19721 6.06887
1.36197 1.20803 6.16534
1.19615 1.21322 6.20324
1.00446 1.21774 6.24755
0.973658 1.21851 6.25466
0.375575 1.23664 6.39158
0.261664 1.2438 6.41643
-0.58708 3.61965 5.83578
0.251238 1.24471 6.41862
0.24508 1.23984 6.4217
0.230027 1.23848 6.42574
0.193968 1.2459 6.43191
0.176128 1.24484 6.43652
0.0871948 1.24145 6.45889
-0.276479 0.425069 6.81498
-0.163675 0.435419 6.78462
0.13941 0.411497 6.72009
1.37624 0.412981 6.42409
1.38944 0.411269 6.42151
3.29891 0.387892 5.973
4.02327 0.381808 5.80194
4.24793 0.374493 5.75067
5.50233 0.368623 5.4529
5.67764 0.366595 5.41168
5.76271 0.366715 5.39132
3.77108 -1.7262 6.55731
3.64756 -1.70408 6.57953
5.98946 1.08401 5.10061
5.8236 1.07875 5.14198
5.77326 1.08186 5.15298
5.76433 1.0854 5.15394
5.67933 1.07981 5.1761
5.61203 1.08058 5.19192
5.60113 1.07884 5.1951
5.49401 1.08948 5.21718
5.47536 1.0878 5.2222
5.21448 1.09783 5.28122
5.14703 1.10022 5.29655
5.12286 1.09858 5.30286
5.01721 1.10024 5.32755
4.93553 1.10374 5.34591
4.86912 1.10827 5.36029
4.79468 1.10319 5.37975
4.74388 1.11376 5.3884
4.44583 1.11926 5.4578
4.41879 1.11769 5.46478
4.38807 1.12024 5.47128
4.28584 1.125 5.49413
4.12848 1.13279 5.52916
4.11196 1.12976 5.53411
4.09075 1.13231 5.53833
4.05575 1.1278 5.54819
3.92198 1.13058 5.57923
3.8362 1.13359 5.59873
3.70371 1.14073 5.62803
3.55775 1.14626 5.66108
3.28571 1.15412 5.72349
2.90513 1.16416 5.81111
2.81019 1.16814 5.83248
2.71537 1.17317 5.85347
2.24988 1.17963 5.96256
2.23543 1.1767 5.96697
2.16511 1.17972 5.98278
2.11653 1.18184 5.99369
1.84943 1.18718 6.05575
1.69778 1.19815 6.08836
1.35147 1.20523 6.16877
0.293641 1.23041 6.41321
4.14191 -3.7023 7.12033
0.263497 1.23151 6.42004
0.209309 1.23802 6.43085
0.158868 1.24078 6.44199
0.123369 1.239 6.45105
0.0977496 1.23438 6.4587
0.0457192 1.23803 6.46993
-0.245359 0.430427 6.80578
-0.637096 3.62464 5.84608
-0.516039 3.6298 5.81545
-0.508061 3.63074 5.81324
2.61545 0.372661 6.14131
3.57643 0.394821 5.90441
3.97283 0.390929 5.81098
4.70524 0.366183 5.64415
5.18305 0.370666 5.52851
5.20053 0.368898 5.52492
5.76937 0.379425 5.38554
5.88536 0.372529 5.3601
6.05146 0.397077 5.31232
3.28822 -1.67917 6.65717
5.98213 1.08697 5.10139
5.97837 1.0841 5.10323
5.97464 1.07879 5.10587
5.79959 1.07317 5.14955
5.67478 1.06723 5.18133
5.64042 1.0786 5.18579
5.2993 1.08093 5.26653
5.25314 1.08639 5.27575
5.10166 1.09328 5.30967
5.0789 1.0949 5.31458
5.06341 1.0884 5.32042
4.96248 1.09737 5.34158
4.8482 1.09674 5.36909
4.76694 1.10285 5.38649
4.68751 1.10285 5.40547
4.60681 1.10395 5.42439
4.56199 1.10864 5.43355
4.53936 1.11026 5.43842
4.4934 1.10699 5.45048
4.23947 1.11724 5.50777
3.98361 1.12154 5.56748
3.96062 1.12658 5.57132
3.54397 1.13409 5.66838
3.0354 1.14757 5.78545
2.80316 1.153 5.83915
2.7905 1.15309 5.84215
4.00966 -3.66676 7.14021
3.83192 -3.64397 7.17516
3.50969 -3.60281 7.23857
3.479 -3.60963 7.24816
3.45076 -3.60508 7.2534
2.70667 1.16095 5.85958
1.76756 1.18627 6.0756
1.5841 1.19158 6.11769
1.30769 1.19897 6.18129
0.306636 1.22254 6.4127
0.28786 1.22368 6.41681
0.201266 1.22055 6.43853
0.198717 1.22454 6.43782
0.165435 1.23191 6.44334
0.14912 1.23234 6.4471
0.0857723 1.22675 6.46408
0.0688408 1.23135 6.46661
0.0134257 1.23009 6.48026
2.16534 -1.49622 6.86512
2.61562 0.383156 6.13781
2.12877 -1.49101 6.87214
2.10504 -1.48598 6.87615
2.08892 -1.48514 6.87973
2.06269 -1.4704 6.88113
5.82691 1.06118 5.14698
5.74375 1.05977 5.16731
5.68777 1.05965 5.18073
5.61041 1.06509 5.19742
5.55301 1.06659 5.21064
5.52897 1.06772 5.21601
5.22322 1.07815 5.28562
5.156 1.08303 5.30007
4.94368 1.08698 5.3495
4.90302 1.08244 5.36071
-0.520144 3.63693 5.81408
-0.468288 3.63519 5.80227
4.74447 1.09452 5.3946
4.66726 1.09623 5.41249
4.4745 1.10276 5.45639
4.39738 1.10311 5.4747
4.35127 1.10284 5.48581
4.28879 1.10924 5.49862
4.22071 1.11231 5.51388
4.16853 1.11495 5.52547
4.15278 1.11112 5.5305
4.10234 1.11693 5.54064
4.09083 1.11025 5.54559
4.08041 1.10949 5.54833
4.03791 1.11583 5.55639
3.91184 1.11852 5.58563
3.62143 1.12491 5.6529
3.36007 1.13159 5.71315
3.19842 1.13341 5.75117
2.9753 1.14708 5.79997
1.37783 1.18692 6.16851
1.33849 1.189 6.17722
1.17951 1.19469 6.21333
0.946327 1.19813 6.26791
0.299178 1.22045 6.41517
0.0940513 1.22017 6.46427
2.95983 0.374169 6.05854
3.40761 0.413303 5.93865
3.60958 0.409155 5.89176
3.71785 0.400898 5.86861
3.86964 0.404336 5.83121
4.74821 0.383456 5.62819
5.49203 0.380962 5.45129
5.87986 0.382095 5.35826
5.90029 0.38376 5.35283
5.97874 0.401189 5.32834
1.65148 -1.40357 6.95734
1.53521 -1.38968 6.98054
1.4458 -1.371 6.99574
1.42786 -1.36756 6.9989
5.98361 1.06483 5.10834
5.82803 1.05 5.1504
5.78082 1.05795 5.15906
5.76141 1.0518 5.16572
5.48513 1.05791 5.22972
5.44787 1.06128 5.23751
5.39465 1.06384 5.24938
5.29773 1.06671 5.27159
5.27506 1.0654 5.27744
5.21175 1.06683 5.29209
-0.68338 3.63025 5.85529
-0.573135 3.63519 5.82732
-0.532391 3.63686 5.81703
-0.476458 3.63898 5.80297
5.1078 1.07484 5.31429
5.08427 1.07539 5.31973
4.99837 1.06918 5.3423
4.92677 1.07661 5.35696
4.82909 1.07758 5.37998
4.77194 1.08335 5.39173
4.64936 1.08487 5.42051
4.62246 1.08847 5.42575
4.56877 1.09132 5.43764
4.5437 1.09342 5.44294
4.38044 1.09527 5.48134
3.96601 1.10911 5.57579
3.66641 1.11241 5.64628
3.07651 1.13188 5.7808
3.02792 1.13895 5.79008
2.96237 1.13425 5.80729
2.8014 1.1367 5.84494
2.62078 1.14373 5.88578
2.46048 1.14854 5.92249
2.26522 1.15207 5.96798
2.0083 1.15839 6.02728
1.29401 1.18465 6.18928
1.09019 1.18997 6.23622
0.362592 1.21044 6.40332
0.364229 1.20597 6.4044
0.306656 1.21362 6.41563
0.302078 1.21495 6.41629
0.289575 1.21208 6.42022
0.191783 1.21121 6.44387
0.183876 1.21594 6.4442
1.39552 -1.35917 7.00386
2.10713 0.412002 6.24979
2.97952 0.380226 6.05183
3.01953 0.37983 6.04241
3.61643 0.409916 5.88987
4.53279 0.393735 5.67627
4.67123 0.391253 5.64401
2.5954 -5.34699 8.03217
2.55135 -5.35056 8.04387
2.33671 -5.31842 8.08455
2.0124 -5.26774 8.14533
1.99668 -5.26974 8.14975
1.81159 -5.25019 8.18752
1.54155 -5.24106 8.24903
1.51435 -5.23721 8.25426
1.32336 -1.36921 7.02441
1.25294 -1.35207 7.03558
1.22006 -1.34749 7.04193
5.94746 1.05454 5.12037
5.83513 1.03943 5.15219
5.82879 1.04172 5.15295
5.81581 1.04271 5.15572
5.77376 1.04273 5.16576
5.57907 1.04974 5.20997
5.53581 1.05072 5.21998
5.51269 1.05033 5.22563
5.45587 1.05199 5.23866
5.42401 1.05747 5.24447
5.06767 1.06531 5.32702
4.75401 1.07644 5.39829
4.68332 1.08075 5.41376
4.59844 1.08593 5.43233
4.55125 1.07232 5.44809
4.28374 1.08816 5.50678
4.23474 1.09688 5.51561
3.8236 1.10172 5.61225
3.62961 1.10911 5.65616
-0.624305 3.63963 5.83808
-0.618477 3.6364 5.83775
-0.511561 3.64512 5.80933
-0.479159 3.64343 5.80215
2.99022 1.12668 5.80313
2.94525 1.13112 5.81241
2.71879 1.13287 5.86594
2.68039 1.13448 5.87459
2.21409 1.14839 5.98141
1.7375 1.15818 6.09205
1.69233 1.16467 6.1007
1.41878 1.17226 6.16356
1.1214 1.17761 6.23285
1.02321 1.18239 6.25473
0.385966 1.19661 6.40229
0.346369 1.19933 6.41086
0.326514 1.20557 6.41354
0.267665 1.2056 6.42759
0.203511 1.20961 6.4416
0.124581 1.20534 6.46187
0.107737 1.20565 6.46579
0.0920471 1.21031 6.468
0.0695546 1.20689 6.4745
0.0452811 1.21212 6.47858
-0.0204771 1.21612 6.49297
5.44984 0.392237 5.45766
5.48202 0.389202 5.45097
4.10304 -0.938193 6.21815
5.62902 0.396729 5.41336
5.69676 0.395808 5.39748
5.76607 0.388258 5.38341
5.88378 0.391583 5.35419
5.90172 0.390333 5.35032
0.214841 -5.20446 8.55394
6.02703 -5.58466 7.29064
5.69331 -5.62278 7.38295
5.28622 -5.58407 7.46745
2.21153 -3.48063 7.50845
1.96908 -3.414 7.5444
1.55887 -3.37471 7.62946
1.4601 -3.36764 7.65072
4.72745 -5.53961 7.58629
6.0932 -3.13645 6.46753
4.46764 -5.51201 7.63926
4.44147 -5.51228 7.6456
4.27954 -5.4861 7.67566
5.98968 1.04423 5.11368
5.98268 1.0439 5.11546
5.81927 1.03193 5.15845
5.67281 1.03463 5.19255
5.52432 1.0426 5.2254
5.43781 1.04379 5.24568
5.40988 1.04461 5.25208
5.34369 1.04558 5.26758
5.26468 1.04578 5.28639
5.21975 1.05265 5.29486
5.16158 1.05441 5.30818
5.12507 1.0553 5.3166
4.98939 1.05799 5.34813
4.9615 1.05794 5.35481
4.63333 1.0701 5.42921
4.60928 1.07068 5.43477
4.58272 1.074 5.44002
4.40419 1.08024 5.48062
-0.685048 3.63663 5.85358
-0.584235 3.64412 5.82703
-0.473189 3.65007 5.79853
-0.462228 3.65154 5.79543
4.26833 1.07957 5.5133
4.22364 1.07861 5.52429
3.95249 1.0908 5.58505
3.46607 1.10284 5.6973
3.3259 1.10837 5.72897
3.1499 1.11 5.77048
2.98043 1.12111 5.80731
2.92674 1.11999 5.82051
2.904 1.11999 5.82594
2.82062 1.12833 5.84311
2.78941 1.12707 5.85098
2.69063 1.12547 5.87511
2.56845 1.13736 5.90038
2.50084 1.12917 5.91924
2.46578 1.13669 5.92513
2.32965 1.13596 5.9579
2.23559 1.14442 5.97758
2.18998 1.14558 5.9881
2.13305 1.14312 6.00251
1.892 1.14566 6.05926
1.4392 1.1568 6.16378
1.28143 1.16723 6.19803
1.04859 1.17925 6.2497
0.460593 1.18998 6.38665
0.459141 1.18593 6.38833
0.442343 1.19079 6.39074
0.348974 1.18941 6.4135
0.320767 1.20008 6.41673
0.306147 1.19767 6.42101
0.281982 1.20101 6.42569
0.193574 1.19859 6.44761
0.167178 1.19725 6.45436
0.113114 1.19743 6.46721
0.0819697 1.2033 6.47272
5.84591 -0.845487 5.77117
5.85382 -0.848776 5.77036
-0.21806 0.458733 6.78993
1.89113 0.439385 6.29237
2.52124 0.401791 6.15422
2.60943 0.400955 6.13342
3.11433 0.396224 6.01435
4.35521 0.400403 5.7165
5.28461 0.388837 5.49825
6.03335 0.425624 5.30723
0.141321 -1.19091 7.24803
5.99134 1.03237 5.11719
5.84874 1.02132 5.15491
5.8068 1.02491 5.16374
5.77601 1.03232 5.16866
-0.650076 3.6398 5.84418
-0.619391 3.64823 5.83407
-0.603147 3.65029 5.82951
-0.59562 3.64498 5.82946
5.76156 1.0264 5.17406
5.59827 1.03918 5.20886
5.58277 1.03501 5.21394
5.56561 1.03078 5.21943
5.50136 1.03372 5.23382
5.48922 1.03159 5.23742
5.42415 1.03625 5.25143
5.39188 1.04298 5.25692
5.05743 1.04919 5.33478
4.83635 1.05604 5.38534
4.77845 1.06244 5.39707
4.69088 1.06054 5.41861
4.53903 1.06186 5.45446
4.38593 1.06764 5.48913
3.81544 1.08797 5.61873
3.76226 1.08803 5.63142
3.74692 1.09251 5.63361
3.44727 1.09548 5.70422
3.1988 1.10415 5.76073
3.13692 1.10477 5.77531
3.11329 1.11033 5.77912
2.88882 1.11257 5.83201
2.83126 1.11318 5.84556
2.80129 1.11307 5.85276
2.78086 1.1132 5.8576
2.7635 1.11284 5.86187
2.41686 1.12842 5.93955
2.39517 1.12954 5.94436
2.36802 1.12823 5.95128
2.32995 1.12822 5.96038
2.23813 1.12986 5.98178
2.13019 1.13578 6.00561
2.06496 1.1372 6.02073
1.84147 1.1401 6.07317
1.67919 1.15281 6.10776
1.39733 1.15604 6.17403
1.15447 1.16573 6.22886
0.955209 1.17149 6.27457
0.893836 1.17439 6.28828
0.571974 1.1772 6.36425
0.386807 1.18948 6.40444
0.319196 1.18619 6.42168
0.288875 1.19053 6.42749
0.177128 1.19529 6.45263
0.167362 1.19126 6.45629
1.41529 -3.37095 7.66252
1.38871 -3.37602 7.67054
0.0699413 1.19566 6.47811
0.0487537 1.20042 6.4816
0.00468079 1.19828 6.49284
-0.0023087 1.19684 6.49499
5.49479 -3.3106 6.66793
5.42008 -3.36285 6.70301
-0.0666461 0.456066 6.75463
0.0509232 0.453782 6.72729
2.61735 0.409321 6.12877
0.0481067 -1.17267 7.26429
-0.665285 3.64808 5.84509
-0.625277 3.65072 5.83466
-0.587031 3.65132 5.82532
-0.488182 3.65938 5.79904
0.029603 -1.17315 7.26887
5.93554 1.02788 5.13201
5.92431 1.0263 5.13521
5.83346 1.01348 5.16114
5.81854 1.01364 5.16465
5.78084 1.01716 5.1725
5.75343 1.01556 5.17958
5.53878 1.02868 5.22654
5.2165 1.03582 5.30118
4.75907 1.04718 5.40673
4.62386 1.05506 5.43643
4.59957 1.05759 5.4414
4.5824 1.05735 5.44558
4.45841 1.05625 5.47557
4.43492 1.05842 5.48047
4.26154 1.06532 5.51962
3.86867 1.07046 5.61179
3.50861 1.08679 5.69243
3.25228 1.09427 5.75121
3.0458 1.09973 5.79874
3.01351 1.10244 5.80556
2.98324 1.10258 5.81275
2.90008 1.1067 5.83126
2.886 1.10512 5.83514
2.80109 1.10507 5.85545
2.75813 1.10491 5.86576
2.58373 1.11322 5.90469
2.55343 1.11888 5.91007
2.49973 1.11393 5.92453
2.47272 1.1193 5.92921
2.45822 1.11797 5.93311
2.33103 1.12075 5.96258
2.30204 1.12121 5.96936
2.28824 1.12152 5.97256
2.23472 1.12066 5.98562
2.21082 1.12804 5.9889
2.19933 1.12957 5.99114
2.08499 1.13408 6.01698
1.88213 1.13094 6.06648
1.5918 1.13994 6.13288
1.53575 1.14267 6.14537
1.50965 1.13963 6.15261
1.33962 1.15543 6.18802
1.04857 1.16001 6.25605
0.818775 1.1676 6.30845
0.468114 1.18213 6.38744
0.281956 1.17862 6.43308
0.265754 1.18404 6.43516
0.194408 1.18523 6.45181
0.179565 1.18931 6.45401
0.141092 1.18411 6.46492
0.0960587 1.18921 6.474
0.0190115 1.19403 6.49082
-0.520945 3.65762 5.80745
3.09998 0.403777 6.01529
3.43328 -0.945165 6.38047
4.10435 -0.928848 6.21475
3.52245 0.42615 5.90697
3.82322 0.428359 5.83438
3.96505 0.425426 5.80146
4.3704 0.410749 5.70946
4.95081 0.406685 5.57212
5.14756 0.405972 5.52535
5.19051 0.400688 5.51683
5.54665 0.411856 5.42806
5.62096 0.410921 5.41061
5.95687 0.42888 5.32443
-0.00456804 -1.14338 7.26721
-0.0171507 -1.13978 7.26903
5.98018 1.02237 5.12316
5.65754 1.01292 5.20336
5.5742 1.01341 5.22311
5.55768 1.01728 5.22578
5.49751 1.01796 5.23993
5.4744 1.01886 5.24516
5.45824 1.01541 5.25015
5.42538 1.01958 5.25663
5.18029 1.02534 5.31329
5.05322 1.03544 5.34032
4.88969 1.03234 5.38042
4.83422 1.03858 5.39161
4.81019 1.03556 5.39835
4.64533 1.04496 5.43464
4.31226 1.05238 5.51177
3.91087 1.06855 5.60234
3.82796 1.07563 5.61981
3.70642 1.06667 5.6518
3.69183 1.07639 5.65208
3.66111 1.07426 5.66013
3.45293 1.08555 5.70614
3.27186 1.08252 5.7504
3.21467 1.09111 5.76123
2.90804 1.09549 5.83305
2.77924 1.10438 5.86089
2.74792 1.10064 5.86961
2.72019 1.09316 5.8787
2.66988 1.10518 5.88676
2.63924 1.10504 5.89413
2.48847 1.10567 5.92994
2.43389 1.11904 5.93857
2.41632 1.11307 5.94474
2.39053 1.11882 5.94901
2.36414 1.11934 5.95514
2.35071 1.11278 5.96051
2.33452 1.11324 5.96423
2.31817 1.11299 5.96822
2.29166 1.11366 5.97433
2.24775 1.11968 5.98284
2.21869 1.1191 5.98997
2.01088 1.1252 6.03761
1.74623 1.12952 6.09942
1.71003 1.13017 6.10785
1.69023 1.13184 6.11203
1.38116 1.14121 6.18278
1.30173 1.14565 6.2003
1.04866 1.15181 6.25873
0.924105 1.16132 6.28536
0.564574 1.16403 6.37036
0.546738 1.16543 6.37416
0.491069 1.16684 6.387
0.335422 1.1744 6.42169
0.302837 1.17398 6.42962
0.184303 1.18042 6.45581
-0.615078 3.65755 5.82997
-0.582597 3.66241 5.8206
0.16012 1.18395 6.46043
0.122812 1.18641 6.46853
0.0564474 1.18375 6.48526
0.0485464 1.18246 6.48758
5.80447 -0.842926 5.78022
6.03237 0.432377 5.30524
2.0637 0.446139 6.24891
2.10335 0.440022 6.24145
4.12981 0.423269 5.76281
-0.0717553 -1.13781 7.28143
-0.083381 -1.13357 7.28281
-0.258758 -1.10637 7.31574
-0.273378 -1.10824 7.31985
-0.304648 -1.09947 7.32443
-0.370293 -1.08461 7.33522
5.75628 0.996778 5.18509
5.65159 1.00099 5.20872
5.39006 1.01095 5.26792
5.36986 1.01057 5.27287
5.31356 1.00753 5.28732
5.23456 1.0172 5.30301
5.15021 1.01756 5.32304
5.02324 1.02498 5.35093
4.93978 1.02409 5.37117
4.79387 1.02784 5.40479
4.73975 1.03457 5.4155
4.6292 1.03795 5.4408
4.61888 1.02758 5.44669
4.58212 1.04041 5.45124
4.5636 1.03695 5.4568
4.53028 1.03659 5.46488
4.49615 1.038 5.47257
4.45194 1.04509 5.4808
4.42848 1.04115 5.4877
4.35909 1.04339 5.50354
4.28638 1.04484 5.52044
4.25072 1.04608 5.52855
3.94273 1.05885 5.59792
3.85738 1.05986 5.61798
3.57796 1.06938 5.6816
3.56314 1.07028 5.68485
3.50863 1.07298 5.69698
3.3997 1.07213 5.72329
3.33085 1.07427 5.73903
3.31304 1.0739 5.74341
3.26568 1.07641 5.7539
2.90218 1.09142 5.83579
2.824 1.09003 5.85493
2.77173 1.08906 5.86774
2.74271 1.08956 5.87451
2.73271 1.09312 5.87573
2.68799 1.09332 5.88634
2.66403 1.0967 5.89095
2.65252 1.09727 5.89351
2.61433 1.10245 5.90093
2.57673 1.10482 5.90913
2.56246 1.10035 5.91402
2.50103 1.09978 5.92888
2.4552 1.10589 5.93782
2.30987 1.10599 5.97251
1.92549 1.12614 6.0577
1.75888 1.12098 6.09921
1.70769 1.11908 6.11206
1.69926 1.12155 6.11327
1.42537 1.13226 6.17517
1.30027 1.13955 6.20266
1.0568 1.14335 6.25958
0.560188 1.15897 6.37308
0.31799 1.16614 6.42858
0.264988 1.1741 6.43862
0.175434 1.17726 6.45897
0.151935 1.17721 6.46461
0.103375 1.17803 6.47594
0.0742076 1.17941 6.48245
0.0564566 1.17555 6.48796
0.0405632 1.17935 6.49051
0.0322379 1.18629 6.49021
0.0166687 1.1797 6.4961
5.22391 0.409999 5.50578
5.25455 0.408541 5.49894
5.35544 0.409818 5.47441
5.62871 0.412926 5.4081
5.63973 0.41606 5.40443
5.76526 0.414386 5.37499
5.79428 0.412468 5.36869
6.02912 0.437461 5.30434
-0.619625 -1.04644 7.3822
2.07188 -5.27533 8.13362
2.08788 -5.29565 8.1365
2.33365 -5.36411 8.10035
5.99371 0.999368 5.12751
5.9885 0.999066 5.12885
5.96244 1.00313 5.13374
5.93689 0.998851 5.14126
5.86375 0.995021 5.15999
5.70714 0.989944 5.19909
5.64236 0.993564 5.21337
5.60853 0.994044 5.22129
5.58879 0.997765 5.22478
5.56142 0.997665 5.23136
2.49051 -5.38859 8.07095
5.48563 0.996186 5.24995
5.45097 1.0028 5.25605
5.03934 1.00748 5.35286
5.01345 1.01609 5.3562
4.87444 1.02022 5.38805
4.8498 1.02363 5.39282
4.82658 1.02308 5.39855
4.66454 1.02844 5.43549
4.54246 1.03015 5.4641
4.48249 1.03518 5.47677
4.47288 1.03076 5.48052
4.12967 1.04011 5.55944
4.05493 1.04779 5.57476
3.97701 1.0507 5.59242
3.69708 1.0527 5.65864
3.67613 1.06232 5.66048
-0.685772 3.66577 5.84415
3.5501 1.06293 5.69039
3.53797 1.05658 5.69538
3.31052 1.0657 5.74672
3.26728 1.0675 5.75645
3.22151 1.07323 5.7655
3.0603 1.07386 5.80381
3.02551 1.07446 5.81192
3.01162 1.07898 5.81375
2.90004 1.07985 5.84012
2.79374 1.08973 5.86226
2.75518 1.08251 5.87386
2.73474 1.08292 5.8786
2.66434 1.08707 5.89405
2.26067 1.10414 5.98487
2.01784 1.10564 6.0424
1.99755 1.10411 6.04775
1.72378 1.11781 6.10864
1.68792 1.1187 6.11692
1.65027 1.12229 6.12473
1.5678 1.12004 6.14518
1.45914 1.12112 6.17078
1.31694 1.12505 6.20346
0.834931 1.14868 6.31083
0.826897 1.14344 6.31448
0.818863 1.14469 6.31598
0.810998 1.14338 6.3183
0.734664 1.14683 6.33539
0.598165 1.15162 6.36643
0.292375 1.16612 6.43471
0.242687 1.16526 6.44686
0.147867 1.17204 6.46728
0.131922 1.17039 6.47164
0.0656954 1.17361 6.4864
0.00982246 1.17221 6.50021
2.53073 -5.38879 8.0614
2.56505 -5.4036 8.05809
6.10717 -3.86613 6.7048
5.95903 -3.94432 6.76598
4.11793 -3.70913 7.12831
-0.166973 0.477482 6.77154
2.03492 0.457507 6.25204
2.942 0.41361 6.04979
2.58052 -5.39849 8.05271
3.63518 -5.54976 7.8506
3.80408 -5.59551 7.82534
5.8043 0.978751 5.17956
5.75574 0.979764 5.19083
5.62489 0.983714 5.22079
5.59756 0.984189 5.22716
5.44205 0.994889 5.26079
5.38542 0.992096 5.27524
5.32221 1.00006 5.28772
5.31184 0.99205 5.29284
5.28833 0.994553 5.29763
5.22885 0.998261 5.31062
5.14298 1.00292 5.3296
5.02436 1.00439 5.35745
5.00677 1.00231 5.36234
4.81508 1.01537 5.40384
4.75135 1.01935 5.41775
4.72159 1.01587 5.42601
4.66921 1.01327 5.43938
4.64651 1.02097 5.44226
4.62663 1.02199 5.44668
4.61079 1.01492 5.45279
4.59053 1.02053 5.45579
4.56638 1.02349 5.46058
4.5027 1.01504 5.47858
4.4528 1.02464 5.48734
4.37699 1.02704 5.50466
4.36236 1.03172 5.50661
4.31265 1.03487 5.51745
4.25652 1.03358 5.53128
4.23373 1.03269 5.53702
4.22065 1.02406 5.54299
4.18 1.03517 5.54904
4.16463 1.02679 5.55548
4.14756 1.03258 5.55765
4.04118 1.04051 5.58045
3.98738 1.03765 5.59425
3.97048 1.03682 5.59856
3.94447 1.04566 5.60186
3.92653 1.03977 5.60808
3.85923 1.04618 5.62205
3.75936 1.04909 5.64495
3.72176 1.05231 5.65287
3.68543 1.04568 5.66374
3.66566 1.0528 5.66612
3.57165 1.05695 5.68721
3.45264 1.05728 5.71554
3.35065 1.05884 5.73939
3.31171 1.0583 5.74887
3.15706 1.06615 5.78323
3.06066 1.06703 5.80597
2.72608 1.07381 5.88368
2.70588 1.07524 5.88803
2.68899 1.07838 5.89103
3.69707 -3.64373 7.2073
3.57739 -3.63157 7.23188
2.00403 -3.43699 7.54364
2.64974 1.08746 5.89741
2.44876 1.09191 5.94397
2.38147 1.09165 5.96013
2.35701 1.08786 5.96722
2.30324 1.09303 5.97837
2.29196 1.09089 5.98177
2.23938 1.08995 5.99464
2.2308 1.08818 5.99727
2.14132 1.09348 6.0169
1.97249 1.1062 6.05305
1.84191 1.1044 6.08484
1.76354 1.10664 6.10282
1.67872 1.11165 6.12144
-0.686232 3.67662 5.84068
1.63264 1.11123 6.13259
1.35729 1.12128 6.19506
1.21835 1.12403 6.22735
1.11197 1.12848 6.2513
0.591421 1.14503 6.37021
0.260659 1.1568 6.44536
0.112753 1.16537 6.47787
0.0871415 1.16563 6.4839
0.0713018 1.16551 6.48773
0.0473323 1.16383 6.49401
0.0316168 1.17001 6.49573
3.10673 0.420235 6.00825
3.21271 0.442701 5.97552
3.26997 0.444249 5.96133
3.33346 0.435922 5.9489
3.44785 0.446294 5.91815
3.46003 0.449591 5.91415
3.60858 0.444137 5.88046
4.03645 0.437447 5.78044
4.11433 0.434662 5.76275
4.16722 0.427338 5.75253
4.19743 -5.66238 7.75341
5.92486 0.979332 5.15057
5.89105 0.966484 5.16288
1.38841 -3.38599 7.6739
5.86535 0.971516 5.16736
5.84439 0.970912 5.17257
5.82297 0.96907 5.17829
5.77201 0.96697 5.19116
5.61984 0.975826 5.2246
5.59029 0.976165 5.23155
5.57128 0.978035 5.23547
5.54783 0.98277 5.23951
5.48986 0.983113 5.25325
5.30404 0.984548 5.29718
5.20554 0.992774 5.318
5.08664 0.990631 5.34711
5.06731 0.993791 5.35069
4.93104 0.996994 5.38219
4.91254 1.00472 5.38406
4.871 1.00284 5.3946
4.82759 1.00483 5.40432
4.80636 1.00489 5.40938
4.78404 1.00161 5.41579
4.73981 1.0076 5.42438
4.68049 1.00541 5.43928
4.5442 1.01798 5.46769
4.48419 1.01445 5.4832
4.46915 1.01083 5.48798
4.28866 1.02191 5.52745
4.12366 1.02773 5.56496
4.07276 1.02644 5.57754
4.01355 1.03233 5.58975
3.9627 1.03045 5.60252
3.68464 1.03998 5.66581
3.51969 1.0461 5.7032
3.19959 1.05771 5.77585
3.05069 1.06016 5.81062
2.76518 1.07236 5.87481
2.7451 1.07198 5.87974
2.6409 1.07596 5.90332
2.62945 1.07306 5.90701
2.42117 1.07835 5.95503
2.21259 1.08925 6.00127
2.04822 1.0897 6.04039
2.00541 1.09635 6.04843
1.98564 1.09631 6.05317
1.95231 1.09555 6.06138
1.62617 1.10491 6.13622
1.35787 1.11306 6.19763
1.23916 1.11541 6.22522
1.21998 1.11703 6.22927
0.938276 1.12944 6.29248
0.283859 1.15328 6.44098
0.244108 1.15433 6.45013
0.138885 1.15656 6.47453
0.0553774 1.16483 6.49176
0.0369694 1.15677 6.49881
-0.00955887 1.15954 6.50902
-0.037605 1.16025 6.51549
5.2561 0.419664 5.4949
5.53272 0.428634 5.42585
5.79583 0.422361 5.36506
5.88239 0.423711 5.34393
6.00083 0.451189 5.30657
6.01778 0.448293 5.30348
-0.290665 0.484869 6.79865
-0.25705 0.485871 6.79029
0.0170603 2.20356 6.15839
1.02454 2.2129 5.9146
5.87553 0.958929 5.16908
5.86258 0.9622 5.1711
5.75667 0.961627 5.19659
5.61949 0.968024 5.22726
5.53563 0.972774 5.24572
5.40531 0.978504 5.27497
5.39059 0.97865 5.27844
5.25286 0.981767 5.31032
5.18874 0.981379 5.32577
5.16117 0.984959 5.33118
5.14143 0.985779 5.33562
5.11335 0.987631 5.34172
5.04382 0.991817 5.35695
5.02561 0.98927 5.36214
4.89308 0.990391 5.39344
4.84533 0.992533 5.40414
4.78266 0.9921 5.41925
4.75401 1.00163 5.42296
4.66428 1.00328 5.44385
4.63895 1.00555 5.44915
4.62536 1.00664 5.45204
4.61035 0.998712 5.45824
4.58146 1.00388 5.46344
4.53252 1.00234 5.47564
4.49879 1.00168 5.48392
4.33419 1.01263 5.51963
4.31586 1.01311 5.52386
4.27207 1.01861 5.5325
4.25013 1.01592 5.53863
4.22952 1.01632 5.54343
4.20804 1.01644 5.54852
4.15087 1.01915 5.56128
4.10702 1.01938 5.57169
4.05015 1.0212 5.58467
3.91845 1.02635 5.61444
3.88391 1.02519 5.62307
3.86434 1.02815 5.62677
3.46133 1.04204 5.71849
3.44961 1.0392 5.72222
3.27748 1.04464 5.76155
3.16019 1.05299 5.78682
2.88591 1.05979 5.85011
2.84788 1.06449 5.85765
2.83509 1.05987 5.86223
2.82667 1.06573 5.86231
2.76181 1.06063 5.87949
2.59332 1.06767 5.91742
2.27137 1.08207 5.98959
2.24942 1.08229 5.99477
1.83552 1.09287 6.09017
1.61788 1.10032 6.13971
1.36764 1.10864 6.19676
0.530907 1.13986 6.38638
0.300462 1.14801 6.43875
0.273835 1.14655 6.44559
0.120819 1.15456 6.47951
0.0980337 1.15621 6.48441
0.0741932 1.14718 6.49308
0.041194 1.15218 6.49932
5.46602e-05 1.15428 6.50845
-0.0259194 1.14789 6.51677
3.16665 0.451438 5.98364
3.44809 0.455655 5.91501
3.58098 0.450353 5.88501
4.28284 0.442907 5.71977
4.33693 0.437949 5.70848
2.07888 2.22651 5.65821
2.11036 2.2223 5.65207
2.22603 2.2337 5.62068
5.98222 0.960957 5.14292
5.84835 0.95648 5.17638
5.80797 0.94711 5.18912
5.78198 0.956185 5.19234
5.58558 0.954533 5.23981
5.57029 0.960469 5.2415
5.54834 0.954595 5.24868
5.45513 0.965121 5.26748
5.31874 0.966524 5.29961
5.29592 0.967837 5.30463
5.23738 0.973307 5.31681
5.21225 0.973088 5.32288
5.0918 0.97646 5.35055
5.0723 0.978301 5.3546
4.9842 0.978135 5.37571
4.95541 0.981663 5.38142
4.93627 0.980708 5.38631
4.92251 0.981564 5.38932
4.87663 0.986201 5.39875
4.81754 0.983601 5.41372
4.80441 0.988287 5.41531
4.77583 0.986166 5.42284
4.69412 0.995412 5.43932
4.66167 0.990202 5.44879
4.63949 0.991399 5.45369
4.53349 0.988415 5.48
4.46113 1.00076 5.49322
4.44457 1.00385 5.49616
4.42342 1.00023 5.50241
4.35773 0.997615 5.51896
4.32681 1.00135 5.52512
4.08647 1.01053 5.57951
4.03561 1.01644 5.58972
3.93472 1.01629 5.61387
3.8484 1.01687 5.6343
3.76865 1.02199 5.65167
3.75055 1.02194 5.65601
3.68729 1.0222 5.67104
3.62082 1.02317 5.6866
3.52565 1.02876 5.70749
3.40192 1.03469 5.7351
3.3451 1.03414 5.74886
3.04653 1.05007 5.81494
3.0005 1.04573 5.82737
2.98079 1.04455 5.83247
2.82912 1.05354 5.86574
2.71983 1.05339 5.89191
2.69614 1.0624 5.89459
2.6506 1.05091 5.90926
2.63285 1.06422 5.90911
2.59517 1.06065 5.91929
2.38842 1.06833 5.96616
2.27806 1.07183 5.99137
1.83589 1.08403 6.09299
1.77096 1.08825 6.10712
1.69598 1.09295 6.12348
1.67708 1.08717 6.1299
1.24304 1.09948 6.22954
1.1669 1.1104 6.24414
1.07262 1.10988 6.26683
0.145354 1.1408 6.47818
0.132212 1.14512 6.4799
0.109625 1.14797 6.48435
0.0859083 1.14834 6.4899
0.059819 1.14774 6.49633
0.0362185 1.14417 6.50315
4.25648 -5.48537 7.68093
4.2389 -5.48414 7.68472
4.17587 -5.47099 7.69545
3.34145 -5.42318 7.87904
3.27814 -5.40786 7.88912
2.97727 -5.40732 7.96082
2.20587 -5.3361 8.12164
2.19272 -5.33722 8.12516
0.348224 -5.24983 8.53703
2.32931 2.22951 5.59738
2.81402 2.23266 5.48053
